2.422348e+02 -4.527198e+02 -2.094049e+03 
2.422386e+02 -4.527138e+02 -2.094060e+03 
2.422370e+02 -4.527190e+02 -2.094055e+03 
2.422302e+02 -4.527160e+02 -2.094042e+03 
2.422350e+02 -4.527144e+02 -2.094036e+03 
2.422367e+02 -4.527182e+02 -2.094057e+03 
2.422367e+02 -4.527129e+02 -2.094049e+03 
2.422390e+02 -4.527120e+02 -2.094054e+03 
2.422455e+02 -4.527151e+02 -2.094072e+03 
2.422398e+02 -4.527143e+02 -2.094047e+03 
2.422420e+02 -4.527101e+02 -2.094060e+03 
2.422454e+02 -4.527105e+02 -2.094042e+03 
2.422459e+02 -4.527155e+02 -2.094047e+03 
2.422416e+02 -4.527111e+02 -2.094061e+03 
2.422436e+02 -4.527150e+02 -2.094028e+03 
2.422379e+02 -4.527138e+02 -2.094041e+03 
2.422403e+02 -4.527134e+02 -2.094055e+03 
2.422363e+02 -4.527177e+02 -2.094024e+03 
2.422440e+02 -4.527187e+02 -2.094053e+03 
2.422376e+02 -4.527177e+02 -2.094042e+03 
2.422375e+02 -4.527187e+02 -2.094041e+03 
2.422357e+02 -4.527231e+02 -2.094035e+03 
2.422382e+02 -4.527231e+02 -2.094047e+03 
2.422349e+02 -4.527215e+02 -2.094041e+03 
2.422358e+02 -4.527206e+02 -2.094066e+03 
2.422375e+02 -4.527210e+02 -2.094036e+03 
2.422384e+02 -4.527234e+02 -2.094036e+03 
2.422365e+02 -4.527227e+02 -2.094038e+03 
2.422335e+02 -4.527251e+02 -2.094031e+03 
2.422287e+02 -4.527303e+02 -2.094026e+03 
2.422269e+02 -4.527240e+02 -2.094023e+03 
2.422255e+02 -4.527244e+02 -2.094014e+03 
2.422182e+02 -4.527345e+02 -2.094015e+03 
2.422150e+02 -4.527400e+02 -2.094024e+03 
2.422130e+02 -4.527450e+02 -2.093991e+03 
2.422138e+02 -4.527521e+02 -2.094016e+03 
2.421915e+02 -4.527590e+02 -2.093993e+03 
2.421931e+02 -4.527633e+02 -2.094010e+03 
2.421857e+02 -4.527660e+02 -2.094004e+03 
2.421818e+02 -4.527638e+02 -2.093969e+03 
2.421798e+02 -4.527691e+02 -2.093970e+03 
2.421766e+02 -4.527677e+02 -2.093962e+03 
2.421669e+02 -4.527725e+02 -2.093973e+03 
2.421681e+02 -4.527693e+02 -2.093950e+03 
2.421599e+02 -4.527788e+02 -2.093950e+03 
2.421501e+02 -4.527795e+02 -2.093951e+03 
2.421389e+02 -4.527799e+02 -2.093923e+03 
2.421294e+02 -4.527828e+02 -2.093919e+03 
2.421231e+02 -4.527862e+02 -2.093910e+03 
2.421227e+02 -4.527838e+02 -2.093916e+03 
2.421225e+02 -4.527905e+02 -2.093888e+03 
2.421286e+02 -4.527887e+02 -2.093918e+03 
2.421313e+02 -4.527904e+02 -2.093911e+03 
2.421246e+02 -4.527861e+02 -2.093904e+03 
2.421323e+02 -4.527873e+02 -2.093925e+03 
2.421337e+02 -4.527897e+02 -2.093898e+03 
2.421286e+02 -4.527863e+02 -2.093902e+03 
2.421312e+02 -4.527888e+02 -2.093921e+03 
2.421327e+02 -4.527906e+02 -2.093909e+03 
2.421264e+02 -4.527903e+02 -2.093911e+03 
2.421263e+02 -4.527931e+02 -2.093928e+03 
2.421252e+02 -4.527943e+02 -2.093915e+03 
2.421210e+02 -4.527910e+02 -2.093921e+03 
2.421158e+02 -4.527928e+02 -2.093894e+03 
2.421161e+02 -4.527965e+02 -2.093906e+03 
2.421205e+02 -4.527932e+02 -2.093895e+03 
2.421134e+02 -4.527903e+02 -2.093878e+03 
2.421268e+02 -4.527898e+02 -2.093934e+03 
2.421191e+02 -4.527917e+02 -2.093884e+03 
2.421173e+02 -4.527981e+02 -2.093924e+03 
2.421157e+02 -4.527957e+02 -2.093891e+03 
2.421158e+02 -4.527938e+02 -2.093889e+03 
2.421217e+02 -4.527915e+02 -2.093925e+03 
2.421147e+02 -4.527950e+02 -2.093873e+03 
2.421187e+02 -4.527969e+02 -2.093887e+03 
2.421202e+02 -4.527943e+02 -2.093888e+03 
2.421178e+02 -4.527969e+02 -2.093868e+03 
2.421216e+02 -4.527954e+02 -2.093916e+03 
2.421203e+02 -4.527949e+02 -2.093906e+03 
2.421223e+02 -4.527925e+02 -2.093884e+03 
2.421276e+02 -4.527929e+02 -2.093913e+03 
2.421242e+02 -4.527935e+02 -2.093897e+03 
2.421210e+02 -4.527928e+02 -2.093894e+03 
2.421262e+02 -4.527960e+02 -2.093914e+03 
2.421218e+02 -4.527927e+02 -2.093889e+03 
2.421180e+02 -4.527870e+02 -2.093883e+03 
2.421194e+02 -4.527851e+02 -2.093886e+03 
2.421131e+02 -4.527935e+02 -2.093896e+03 
2.421156e+02 -4.527906e+02 -2.093893e+03 
2.421160e+02 -4.527910e+02 -2.093898e+03 
2.421114e+02 -4.527902e+02 -2.093885e+03 
2.421151e+02 -4.527822e+02 -2.093883e+03 
2.421119e+02 -4.527905e+02 -2.093882e+03 
2.421100e+02 -4.527911e+02 -2.093881e+03 
2.421144e+02 -4.527880e+02 -2.093883e+03 
2.421184e+02 -4.527890e+02 -2.093881e+03 
2.421205e+02 -4.527900e+02 -2.093895e+03 
2.421173e+02 -4.527903e+02 -2.093881e+03 
2.421211e+02 -4.527914e+02 -2.093872e+03 
2.421147e+02 -4.527897e+02 -2.093871e+03 
2.421128e+02 -4.527875e+02 -2.093876e+03 
2.421139e+02 -4.527860e+02 -2.093893e+03 
2.421192e+02 -4.527901e+02 -2.093907e+03 
2.421122e+02 -4.527859e+02 -2.093885e+03 
2.421112e+02 -4.527894e+02 -2.093887e+03 
2.421140e+02 -4.527934e+02 -2.093906e+03 
2.421052e+02 -4.527891e+02 -2.093868e+03 
2.421104e+02 -4.527893e+02 -2.093862e+03 
2.421147e+02 -4.527906e+02 -2.093873e+03 
2.421149e+02 -4.527924e+02 -2.093884e+03 
2.421141e+02 -4.527950e+02 -2.093862e+03 
2.421128e+02 -4.527974e+02 -2.093883e+03 
2.421062e+02 -4.527976e+02 -2.093859e+03 
2.421045e+02 -4.528019e+02 -2.093868e+03 
2.421005e+02 -4.527997e+02 -2.093853e+03 
2.420931e+02 -4.528086e+02 -2.093858e+03 
2.420883e+02 -4.528047e+02 -2.093847e+03 
2.420750e+02 -4.528079e+02 -2.093822e+03 
2.420674e+02 -4.528087e+02 -2.093795e+03 
2.420518e+02 -4.528065e+02 -2.093778e+03 
2.420378e+02 -4.527931e+02 -2.093748e+03 
2.420121e+02 -4.527550e+02 -2.093728e+03 
2.419838e+02 -4.526828e+02 -2.093727e+03 
2.419345e+02 -4.525356e+02 -2.093647e+03 
2.418326e+02 -4.522828e+02 -2.093528e+03 
2.416492e+02 -4.520053e+02 -2.093358e+03 
2.413904e+02 -4.516231e+02 -2.093070e+03 
2.411399e+02 -4.512102e+02 -2.092829e+03 
2.407472e+02 -4.507052e+02 -2.092366e+03 
2.403675e+02 -4.500811e+02 -2.092011e+03 
2.398955e+02 -4.493040e+02 -2.091526e+03 
2.394599e+02 -4.484074e+02 -2.090965e+03 
2.389933e+02 -4.474255e+02 -2.090485e+03 
2.386168e+02 -4.463230e+02 -2.090097e+03 
2.381889e+02 -4.451079e+02 -2.089647e+03 
2.378401e+02 -4.438187e+02 -2.089164e+03 
2.374685e+02 -4.425049e+02 -2.088729e+03 
2.372167e+02 -4.411619e+02 -2.088252e+03 
2.370644e+02 -4.397307e+02 -2.087776e+03 
2.371847e+02 -4.386297e+02 -2.087511e+03 
2.371507e+02 -4.372851e+02 -2.087204e+03 
2.370395e+02 -4.358157e+02 -2.086848e+03 
2.369135e+02 -4.342102e+02 -2.086574e+03 
2.368529e+02 -4.325090e+02 -2.086415e+03 
2.368224e+02 -4.307486e+02 -2.085985e+03 
2.368344e+02 -4.290062e+02 -2.085635e+03 
2.368523e+02 -4.272171e+02 -2.085223e+03 
2.369178e+02 -4.253488e+02 -2.084959e+03 
2.369613e+02 -4.233956e+02 -2.084582e+03 
2.369648e+02 -4.213519e+02 -2.084253e+03 
2.369542e+02 -4.192735e+02 -2.083853e+03 
2.369300e+02 -4.170940e+02 -2.083491e+03 
2.369341e+02 -4.148914e+02 -2.083167e+03 
2.369665e+02 -4.126341e+02 -2.082759e+03 
2.369991e+02 -4.102657e+02 -2.082124e+03 
2.370334e+02 -4.078412e+02 -2.081439e+03 
2.370490e+02 -4.053563e+02 -2.080871e+03 
2.370943e+02 -4.028028e+02 -2.080063e+03 
2.371754e+02 -4.001703e+02 -2.079433e+03 
2.372147e+02 -3.975175e+02 -2.078711e+03 
2.372108e+02 -3.947781e+02 -2.077844e+03 
2.372923e+02 -3.919927e+02 -2.077326e+03 
2.372940e+02 -3.891499e+02 -2.076323e+03 
2.373085e+02 -3.862321e+02 -2.075807e+03 
2.372486e+02 -3.832869e+02 -2.075011e+03 
2.372360e+02 -3.802398e+02 -2.074379e+03 
2.372113e+02 -3.771782e+02 -2.073737e+03 
2.371659e+02 -3.740280e+02 -2.073151e+03 
2.370880e+02 -3.707993e+02 -2.072548e+03 
2.369718e+02 -3.674994e+02 -2.071931e+03 
2.368259e+02 -3.641536e+02 -2.071398e+03 
2.366419e+02 -3.606626e+02 -2.070743e+03 
2.364728e+02 -3.571632e+02 -2.070456e+03 
2.362338e+02 -3.535627e+02 -2.069761e+03 
2.360040e+02 -3.499065e+02 -2.069246e+03 
2.357847e+02 -3.461909e+02 -2.068893e+03 
2.355196e+02 -3.424413e+02 -2.068331e+03 
2.352728e+02 -3.386241e+02 -2.067974e+03 
2.350008e+02 -3.347062e+02 -2.067445e+03 
2.347391e+02 -3.307903e+02 -2.067020e+03 
2.344740e+02 -3.268408e+02 -2.066648e+03 
2.342092e+02 -3.228175e+02 -2.066124e+03 
2.339436e+02 -3.188095e+02 -2.065725e+03 
2.336686e+02 -3.146928e+02 -2.065104e+03 
2.334054e+02 -3.105403e+02 -2.064640e+03 
2.331558e+02 -3.063742e+02 -2.064124e+03 
2.328977e+02 -3.021754e+02 -2.063630e+03 
2.326335e+02 -2.979306e+02 -2.063055e+03 
2.323659e+02 -2.936804e+02 -2.062705e+03 
2.320858e+02 -2.893594e+02 -2.062083e+03 
2.318515e+02 -2.850494e+02 -2.061711e+03 
2.316149e+02 -2.807322e+02 -2.061333e+03 
2.313472e+02 -2.763907e+02 -2.060891e+03 
2.311005e+02 -2.720593e+02 -2.060564e+03 
2.308649e+02 -2.676917e+02 -2.060227e+03 
2.306436e+02 -2.632998e+02 -2.059957e+03 
2.304250e+02 -2.589049e+02 -2.059775e+03 
2.301987e+02 -2.544476e+02 -2.059510e+03 
2.299786e+02 -2.499617e+02 -2.059126e+03 
2.297789e+02 -2.454328e+02 -2.058835e+03 
2.296085e+02 -2.408692e+02 -2.058663e+03 
2.294234e+02 -2.363065e+02 -2.058273e+03 
2.292706e+02 -2.317335e+02 -2.058184e+03 
2.291105e+02 -2.271390e+02 -2.057908e+03 
2.289619e+02 -2.224957e+02 -2.057612e+03 
2.288571e+02 -2.178331e+02 -2.057479e+03 
2.287639e+02 -2.131785e+02 -2.057250e+03 
2.286673e+02 -2.085361e+02 -2.056901e+03 
2.285945e+02 -2.038229e+02 -2.056706e+03 
2.285007e+02 -1.990845e+02 -2.056527e+03 
2.284088e+02 -1.943493e+02 -2.056335e+03 
2.283268e+02 -1.895433e+02 -2.056030e+03 
2.282996e+02 -1.847553e+02 -2.055849e+03 
2.282974e+02 -1.799506e+02 -2.055738e+03 
2.283043e+02 -1.751136e+02 -2.055526e+03 
2.283311e+02 -1.702433e+02 -2.055324e+03 
2.283900e+02 -1.653955e+02 -2.055159e+03 
2.284725e+02 -1.605684e+02 -2.054944e+03 
2.286060e+02 -1.557513e+02 -2.054805e+03 
2.287516e+02 -1.509204e+02 -2.054623e+03 
2.289435e+02 -1.461535e+02 -2.054580e+03 
2.291743e+02 -1.413729e+02 -2.054551e+03 
2.293796e+02 -1.366244e+02 -2.054466e+03 
2.296416e+02 -1.319181e+02 -2.054511e+03 
2.299103e+02 -1.272449e+02 -2.054665e+03 
2.302063e+02 -1.225884e+02 -2.054651e+03 
2.304960e+02 -1.179882e+02 -2.054729e+03 
2.308286e+02 -1.133702e+02 -2.054899e+03 
2.311563e+02 -1.087823e+02 -2.055113e+03 
2.315231e+02 -1.042133e+02 -2.055135e+03 
2.318976e+02 -9.960074e+01 -2.055375e+03 
2.323096e+02 -9.504021e+01 -2.055659e+03 
2.327156e+02 -9.044387e+01 -2.055815e+03 
2.331381e+02 -8.585632e+01 -2.056006e+03 
2.335925e+02 -8.124521e+01 -2.056212e+03 
2.340875e+02 -7.662981e+01 -2.056518e+03 
2.345692e+02 -7.201233e+01 -2.056752e+03 
2.350807e+02 -6.740572e+01 -2.057073e+03 
2.356046e+02 -6.279081e+01 -2.057426e+03 
2.361445e+02 -5.812341e+01 -2.057840e+03 
2.366959e+02 -5.342839e+01 -2.058246e+03 
2.372659e+02 -4.873882e+01 -2.058585e+03 
2.378768e+02 -4.402275e+01 -2.059110e+03 
2.384720e+02 -3.927707e+01 -2.059530e+03 
2.391120e+02 -3.451904e+01 -2.060018e+03 
2.397862e+02 -2.972535e+01 -2.060438e+03 
2.405032e+02 -2.491169e+01 -2.061011e+03 
2.412240e+02 -2.010171e+01 -2.061476e+03 
2.419790e+02 -1.523763e+01 -2.062015e+03 
2.427574e+02 -1.039605e+01 -2.062644e+03 
2.435222e+02 -5.562268e+00 -2.063067e+03 
2.443241e+02 -7.061626e-01 -2.063750e+03 
2.451444e+02 4.137682e+00 -2.064329e+03 
2.459836e+02 8.975113e+00 -2.064828e+03 
2.468555e+02 1.380961e+01 -2.065466e+03 
2.477561e+02 1.862147e+01 -2.065962e+03 
2.487108e+02 2.340209e+01 -2.066458e+03 
2.496478e+02 2.819133e+01 -2.067000e+03 
2.506160e+02 3.295664e+01 -2.067592e+03 
2.516286e+02 3.770279e+01 -2.068202e+03 
2.526476e+02 4.239955e+01 -2.068749e+03 
2.536881e+02 4.705617e+01 -2.069324e+03 
2.547100e+02 5.167138e+01 -2.069988e+03 
2.557741e+02 5.623413e+01 -2.070656e+03 
2.568082e+02 6.070993e+01 -2.071396e+03 
2.578586e+02 6.511844e+01 -2.072068e+03 
2.588101e+02 6.940788e+01 -2.072754e+03 
2.597795e+02 7.361202e+01 -2.073524e+03 
2.607282e+02 7.773118e+01 -2.074302e+03 
2.616233e+02 8.173662e+01 -2.074945e+03 
2.625811e+02 8.568554e+01 -2.075809e+03 
2.634855e+02 8.953513e+01 -2.076479e+03 
2.643459e+02 9.328754e+01 -2.077068e+03 
2.652355e+02 9.697937e+01 -2.077687e+03 
2.661198e+02 1.005437e+02 -2.078290e+03 
2.669812e+02 1.040247e+02 -2.078885e+03 
2.678138e+02 1.074184e+02 -2.079472e+03 
2.685975e+02 1.107077e+02 -2.080066e+03 
2.693384e+02 1.138989e+02 -2.080616e+03 
2.700634e+02 1.170288e+02 -2.081172e+03 
2.707638e+02 1.200469e+02 -2.081690e+03 
2.714267e+02 1.230013e+02 -2.082253e+03 
2.720307e+02 1.258575e+02 -2.082722e+03 
2.726144e+02 1.286693e+02 -2.083265e+03 
2.731553e+02 1.313920e+02 -2.083783e+03 
2.736486e+02 1.340320e+02 -2.084206e+03 
2.741039e+02 1.366250e+02 -2.084724e+03 
2.745312e+02 1.391264e+02 -2.085240e+03 
2.748959e+02 1.415315e+02 -2.085747e+03 
2.752292e+02 1.438456e+02 -2.086250e+03 
2.755002e+02 1.460455e+02 -2.086798e+03 
2.756989e+02 1.481315e+02 -2.087292e+03 
2.758483e+02 1.501441e+02 -2.087771e+03 
2.759402e+02 1.520481e+02 -2.088258e+03 
2.759907e+02 1.538930e+02 -2.088794e+03 
2.759976e+02 1.556327e+02 -2.089355e+03 
2.759487e+02 1.572785e+02 -2.089828e+03 
2.758516e+02 1.588480e+02 -2.090320e+03 
2.757299e+02 1.603400e+02 -2.090865e+03 
2.755749e+02 1.617300e+02 -2.091317e+03 
2.753817e+02 1.630634e+02 -2.091640e+03 
2.751854e+02 1.643316e+02 -2.091990e+03 
2.750088e+02 1.655256e+02 -2.092291e+03 
2.748249e+02 1.666539e+02 -2.092559e+03 
2.746424e+02 1.677057e+02 -2.092748e+03 
2.744603e+02 1.686530e+02 -2.092910e+03 
2.742451e+02 1.695252e+02 -2.093093e+03 
2.740095e+02 1.702977e+02 -2.093264e+03 
2.737114e+02 1.709745e+02 -2.093450e+03 
2.733633e+02 1.715339e+02 -2.093638e+03 
2.729579e+02 1.719611e+02 -2.093870e+03 
2.725148e+02 1.722787e+02 -2.094081e+03 
2.720447e+02 1.724785e+02 -2.094344e+03 
2.715523e+02 1.725765e+02 -2.094621e+03 
2.710285e+02 1.725513e+02 -2.094895e+03 
2.704746e+02 1.724046e+02 -2.095174e+03 
2.698928e+02 1.721492e+02 -2.095483e+03 
2.692851e+02 1.718020e+02 -2.095873e+03 
2.686578e+02 1.713494e+02 -2.096205e+03 
2.680163e+02 1.708253e+02 -2.096548e+03 
2.673712e+02 1.702414e+02 -2.096917e+03 
2.667463e+02 1.696203e+02 -2.097267e+03 
2.661179e+02 1.689872e+02 -2.097586e+03 
2.654940e+02 1.683438e+02 -2.097918e+03 
2.648987e+02 1.677029e+02 -2.098213e+03 
2.643447e+02 1.670780e+02 -2.098479e+03 
2.637929e+02 1.664774e+02 -2.098678e+03 
2.632781e+02 1.659091e+02 -2.098889e+03 
2.628080e+02 1.653734e+02 -2.099088e+03 
2.623779e+02 1.648498e+02 -2.099330e+03 
2.619519e+02 1.643410e+02 -2.099601e+03 
2.615329e+02 1.638398e+02 -2.099853e+03 
2.611318e+02 1.633699e+02 -2.100076e+03 
2.607497e+02 1.629286e+02 -2.100346e+03 
2.603832e+02 1.624885e+02 -2.100619e+03 
2.600378e+02 1.620711e+02 -2.100936e+03 
2.596691e+02 1.616638e+02 -2.101240e+03 
2.594702e+02 1.612908e+02 -2.101446e+03 
2.594521e+02 1.609384e+02 -2.101519e+03 
2.593640e+02 1.606543e+02 -2.101587e+03 
2.593737e+02 1.604335e+02 -2.101563e+03 
2.593896e+02 1.602479e+02 -2.101616e+03 
2.594092e+02 1.600830e+02 -2.101601e+03 
2.594362e+02 1.599293e+02 -2.101576e+03 
2.594755e+02 1.597707e+02 -2.101566e+03 
2.595260e+02 1.596136e+02 -2.101623e+03 
2.596017e+02 1.594686e+02 -2.101697e+03 
2.596895e+02 1.593163e+02 -2.101744e+03 
2.597805e+02 1.591621e+02 -2.101824e+03 
2.598802e+02 1.589913e+02 -2.101958e+03 
2.599717e+02 1.588177e+02 -2.102076e+03 
2.600410e+02 1.586127e+02 -2.102146e+03 
2.601069e+02 1.584014e+02 -2.102266e+03 
2.601505e+02 1.582098e+02 -2.102390e+03 
2.601805e+02 1.580391e+02 -2.102479e+03 
2.601862e+02 1.578995e+02 -2.102522e+03 
2.601814e+02 1.577992e+02 -2.102566e+03 
2.601718e+02 1.577395e+02 -2.102610e+03 
2.601393e+02 1.577158e+02 -2.102616e+03 
2.601195e+02 1.577045e+02 -2.102631e+03 
2.600901e+02 1.576914e+02 -2.102645e+03 
2.600575e+02 1.576759e+02 -2.102658e+03 
2.600275e+02 1.576531e+02 -2.102671e+03 
2.600135e+02 1.576261e+02 -2.102675e+03 
2.599943e+02 1.575983e+02 -2.102682e+03 
2.599833e+02 1.575660e+02 -2.102671e+03 
2.599781e+02 1.575299e+02 -2.102687e+03 
2.599630e+02 1.574908e+02 -2.102691e+03 
2.599338e+02 1.574660e+02 -2.102725e+03 
2.599212e+02 1.574384e+02 -2.102757e+03 
2.599191e+02 1.574008e+02 -2.102788e+03 
2.599306e+02 1.573628e+02 -2.102817e+03 
2.599290e+02 1.573280e+02 -2.102854e+03 
2.599228e+02 1.572991e+02 -2.102872e+03 
2.599136e+02 1.572722e+02 -2.102870e+03 
2.599031e+02 1.572543e+02 -2.102865e+03 
2.598843e+02 1.572467e+02 -2.102861e+03 
2.598653e+02 1.572339e+02 -2.102857e+03 
2.598364e+02 1.572247e+02 -2.102844e+03 
2.598027e+02 1.572148e+02 -2.102836e+03 
2.597821e+02 1.572156e+02 -2.102821e+03 
2.597616e+02 1.572180e+02 -2.102819e+03 
2.597327e+02 1.572223e+02 -2.102792e+03 
2.597216e+02 1.572299e+02 -2.102794e+03 
2.597062e+02 1.572391e+02 -2.102799e+03 
2.596891e+02 1.572447e+02 -2.102792e+03 
2.596851e+02 1.572520e+02 -2.102795e+03 
2.596869e+02 1.572566e+02 -2.102805e+03 
2.596988e+02 1.572579e+02 -2.102811e+03 
2.597096e+02 1.572626e+02 -2.102833e+03 
2.597255e+02 1.572693e+02 -2.102846e+03 
2.597439e+02 1.572750e+02 -2.102863e+03 
2.597635e+02 1.572825e+02 -2.102883e+03 
2.597841e+02 1.572876e+02 -2.102906e+03 
2.597854e+02 1.572901e+02 -2.102925e+03 
2.597831e+02 1.572900e+02 -2.102922e+03 
2.597787e+02 1.572885e+02 -2.102929e+03 
2.597758e+02 1.572854e+02 -2.102918e+03 
2.597773e+02 1.572876e+02 -2.102921e+03 
2.597767e+02 1.572896e+02 -2.102934e+03 
2.597718e+02 1.572880e+02 -2.102922e+03 
2.597725e+02 1.572883e+02 -2.102938e+03 
2.597724e+02 1.572875e+02 -2.102922e+03 
2.597836e+02 1.572865e+02 -2.102933e+03 
2.597826e+02 1.572800e+02 -2.102923e+03 
2.597969e+02 1.572707e+02 -2.102933e+03 
2.597942e+02 1.572623e+02 -2.102935e+03 
2.597987e+02 1.572504e+02 -2.102934e+03 
2.598056e+02 1.572362e+02 -2.102947e+03 
2.598064e+02 1.572113e+02 -2.102955e+03 
2.598118e+02 1.571861e+02 -2.102970e+03 
2.598134e+02 1.571663e+02 -2.102976e+03 
2.598152e+02 1.571456e+02 -2.102976e+03 
2.598185e+02 1.571271e+02 -2.102969e+03 
2.598242e+02 1.571028e+02 -2.102974e+03 
2.598263e+02 1.570780e+02 -2.102979e+03 
2.598286e+02 1.570550e+02 -2.102982e+03 
2.598415e+02 1.570376e+02 -2.102993e+03 
2.598457e+02 1.570163e+02 -2.102995e+03 
2.598578e+02 1.569908e+02 -2.102989e+03 
2.598622e+02 1.569656e+02 -2.103009e+03 
2.598694e+02 1.569376e+02 -2.103011e+03 
2.598742e+02 1.569139e+02 -2.103014e+03 
2.598758e+02 1.568949e+02 -2.103017e+03 
2.598762e+02 1.568799e+02 -2.103024e+03 
2.598799e+02 1.568684e+02 -2.103048e+03 
2.598803e+02 1.568584e+02 -2.103052e+03 
2.598792e+02 1.568465e+02 -2.103054e+03 
2.598866e+02 1.568315e+02 -2.103066e+03 
2.598920e+02 1.568098e+02 -2.103066e+03 
2.598953e+02 1.567920e+02 -2.103084e+03 
2.599018e+02 1.567733e+02 -2.103091e+03 
2.599031e+02 1.567501e+02 -2.103096e+03 
2.599036e+02 1.567223e+02 -2.103104e+03 
2.599014e+02 1.566922e+02 -2.103108e+03 
2.599026e+02 1.566590e+02 -2.103111e+03 
2.598923e+02 1.566314e+02 -2.103096e+03 
2.598862e+02 1.566214e+02 -2.103096e+03 
2.598654e+02 1.566377e+02 -2.103082e+03 
2.598430e+02 1.566560e+02 -2.103065e+03 
2.598236e+02 1.566726e+02 -2.103057e+03 
2.597959e+02 1.566932e+02 -2.103028e+03 
2.597712e+02 1.567208e+02 -2.103002e+03 
2.597495e+02 1.567508e+02 -2.102990e+03 
2.597317e+02 1.567854e+02 -2.102969e+03 
2.597104e+02 1.568180e+02 -2.102946e+03 
2.596940e+02 1.568523e+02 -2.102930e+03 
2.596810e+02 1.568849e+02 -2.102930e+03 
2.596737e+02 1.569107e+02 -2.102925e+03 
2.596620e+02 1.569341e+02 -2.102923e+03 
2.596553e+02 1.569676e+02 -2.102909e+03 
2.596542e+02 1.570070e+02 -2.102928e+03 
2.596578e+02 1.570435e+02 -2.102951e+03 
2.596549e+02 1.570676e+02 -2.102950e+03 
2.596538e+02 1.570787e+02 -2.102957e+03 
2.596511e+02 1.570859e+02 -2.102959e+03 
2.596490e+02 1.570901e+02 -2.102956e+03 
2.596521e+02 1.570978e+02 -2.102957e+03 
2.596475e+02 1.571038e+02 -2.102955e+03 
2.596417e+02 1.571153e+02 -2.102959e+03 
2.596365e+02 1.571428e+02 -2.102961e+03 
2.596247e+02 1.571621e+02 -2.102952e+03 
2.596184e+02 1.571765e+02 -2.102958e+03 
2.596141e+02 1.571915e+02 -2.102971e+03 
2.596091e+02 1.572004e+02 -2.102958e+03 
2.596048e+02 1.572166e+02 -2.102968e+03 
2.596002e+02 1.572349e+02 -2.102970e+03 
2.595955e+02 1.572541e+02 -2.102974e+03 
2.595973e+02 1.572747e+02 -2.102979e+03 
2.596026e+02 1.572948e+02 -2.102978e+03 
2.596126e+02 1.573243e+02 -2.103001e+03 
2.596367e+02 1.573571e+02 -2.103009e+03 
2.596579e+02 1.573893e+02 -2.103037e+03 
2.596877e+02 1.574208e+02 -2.103061e+03 
2.597231e+02 1.574299e+02 -2.103091e+03 
2.597603e+02 1.574270e+02 -2.103121e+03 
2.598033e+02 1.574199e+02 -2.103164e+03 
2.598417e+02 1.574164e+02 -2.103210e+03 
2.598845e+02 1.574072e+02 -2.103253e+03 
2.599278e+02 1.573957e+02 -2.103299e+03 
2.599675e+02 1.573811e+02 -2.103336e+03 
2.600131e+02 1.573596e+02 -2.103389e+03 
2.600526e+02 1.573353e+02 -2.103422e+03 
2.600883e+02 1.573185e+02 -2.103456e+03 
2.601140e+02 1.572985e+02 -2.103476e+03 
2.601431e+02 1.572798e+02 -2.103498e+03 
2.601638e+02 1.572661e+02 -2.103522e+03 
2.601884e+02 1.572525e+02 -2.103539e+03 
2.602125e+02 1.572336e+02 -2.103558e+03 
2.602240e+02 1.572186e+02 -2.103578e+03 
2.602328e+02 1.572066e+02 -2.103590e+03 
2.602417e+02 1.571929e+02 -2.103584e+03 
2.602534e+02 1.571833e+02 -2.103594e+03 
2.602635e+02 1.571701e+02 -2.103600e+03 
2.602817e+02 1.571604e+02 -2.103617e+03 
2.603001e+02 1.571510e+02 -2.103635e+03 
2.603213e+02 1.571388e+02 -2.103650e+03 
2.603433e+02 1.571203e+02 -2.103668e+03 
2.603632e+02 1.571022e+02 -2.103672e+03 
2.603751e+02 1.570867e+02 -2.103688e+03 
2.603918e+02 1.570704e+02 -2.103708e+03 
2.603983e+02 1.570526e+02 -2.103714e+03 
2.604052e+02 1.570374e+02 -2.103713e+03 
2.604101e+02 1.570192e+02 -2.103711e+03 
2.604142e+02 1.570070e+02 -2.103726e+03 
2.604169e+02 1.570023e+02 -2.103741e+03 
2.604088e+02 1.570049e+02 -2.103751e+03 
2.604165e+02 1.570036e+02 -2.103758e+03 
2.604256e+02 1.570021e+02 -2.103764e+03 
2.604315e+02 1.570014e+02 -2.103768e+03 
2.604354e+02 1.569993e+02 -2.103765e+03 
2.604331e+02 1.569983e+02 -2.103766e+03 
2.604366e+02 1.570014e+02 -2.103774e+03 
2.604328e+02 1.570181e+02 -2.103788e+03 
2.604249e+02 1.570183e+02 -2.103780e+03 
2.604272e+02 1.570149e+02 -2.103773e+03 
2.604171e+02 1.570168e+02 -2.103787e+03 
2.604140e+02 1.570181e+02 -2.103777e+03 
2.604088e+02 1.570144e+02 -2.103781e+03 
2.604054e+02 1.570147e+02 -2.103778e+03 
2.604037e+02 1.570175e+02 -2.103790e+03 
2.604091e+02 1.570120e+02 -2.103779e+03 
2.604133e+02 1.570100e+02 -2.103781e+03 
2.604165e+02 1.570026e+02 -2.103777e+03 
2.604267e+02 1.569961e+02 -2.103785e+03 
2.604298e+02 1.569885e+02 -2.103790e+03 
2.604299e+02 1.569794e+02 -2.103784e+03 
2.604377e+02 1.569729e+02 -2.103794e+03 
2.604344e+02 1.569667e+02 -2.103794e+03 
2.604344e+02 1.569626e+02 -2.103796e+03 
2.604336e+02 1.569594e+02 -2.103798e+03 
2.604234e+02 1.569509e+02 -2.103807e+03 
2.604272e+02 1.569509e+02 -2.103804e+03 
2.604322e+02 1.569440e+02 -2.103815e+03 
2.604264e+02 1.569426e+02 -2.103812e+03 
2.604254e+02 1.569403e+02 -2.103803e+03 
2.604318e+02 1.569397e+02 -2.103800e+03 
2.604369e+02 1.569384e+02 -2.103807e+03 
2.604329e+02 1.569372e+02 -2.103801e+03 
2.604401e+02 1.569361e+02 -2.103793e+03 
2.604387e+02 1.569353e+02 -2.103799e+03 
2.604388e+02 1.569350e+02 -2.103796e+03 
2.604401e+02 1.569353e+02 -2.103798e+03 
2.604359e+02 1.569327e+02 -2.103792e+03 
2.604345e+02 1.569315e+02 -2.103802e+03 
2.604341e+02 1.569313e+02 -2.103802e+03 
2.604374e+02 1.569243e+02 -2.103796e+03 
2.604350e+02 1.569212e+02 -2.103799e+03 
2.604387e+02 1.569165e+02 -2.103796e+03 
2.604432e+02 1.569130e+02 -2.103789e+03 
2.604483e+02 1.569066e+02 -2.103794e+03 
2.604542e+02 1.569009e+02 -2.103789e+03 
2.604586e+02 1.568952e+02 -2.103782e+03 
2.604646e+02 1.568892e+02 -2.103772e+03 
2.604758e+02 1.568868e+02 -2.103785e+03 
2.604774e+02 1.568848e+02 -2.103790e+03 
2.604791e+02 1.568813e+02 -2.103788e+03 
2.604774e+02 1.568820e+02 -2.103784e+03 
2.604743e+02 1.568805e+02 -2.103774e+03 
2.604657e+02 1.568813e+02 -2.103769e+03 
2.604666e+02 1.568802e+02 -2.103768e+03 
2.604595e+02 1.568806e+02 -2.103763e+03 
2.604593e+02 1.568802e+02 -2.103763e+03 
2.604616e+02 1.568846e+02 -2.103778e+03 
2.604578e+02 1.568826e+02 -2.103763e+03 
2.604546e+02 1.568839e+02 -2.103771e+03 
2.604565e+02 1.568831e+02 -2.103757e+03 
2.604538e+02 1.568815e+02 -2.103749e+03 
2.604486e+02 1.568814e+02 -2.103738e+03 
2.604455e+02 1.568802e+02 -2.103726e+03 
2.604427e+02 1.568798e+02 -2.103725e+03 
2.604369e+02 1.568789e+02 -2.103726e+03 
2.604291e+02 1.568783e+02 -2.103713e+03 
2.604193e+02 1.568788e+02 -2.103708e+03 
2.604074e+02 1.568768e+02 -2.103703e+03 
2.603959e+02 1.568733e+02 -2.103689e+03 
2.603939e+02 1.568769e+02 -2.103693e+03 
2.603886e+02 1.568732e+02 -2.103696e+03 
2.603831e+02 1.568657e+02 -2.103681e+03 
2.603819e+02 1.568632e+02 -2.103686e+03 
2.603829e+02 1.568569e+02 -2.103672e+03 
2.603799e+02 1.568540e+02 -2.103661e+03 
2.603856e+02 1.568516e+02 -2.103674e+03 
2.603883e+02 1.568482e+02 -2.103663e+03 
2.603856e+02 1.568461e+02 -2.103666e+03 
2.603810e+02 1.568438e+02 -2.103659e+03 
2.603784e+02 1.568443e+02 -2.103676e+03 
2.603757e+02 1.568409e+02 -2.103665e+03 
2.603734e+02 1.568398e+02 -2.103669e+03 
2.603727e+02 1.568405e+02 -2.103670e+03 
2.603664e+02 1.568379e+02 -2.103673e+03 
2.603684e+02 1.568361e+02 -2.103672e+03 
2.603728e+02 1.568395e+02 -2.103677e+03 
2.603797e+02 1.568376e+02 -2.103665e+03 
2.603865e+02 1.568390e+02 -2.103676e+03 
2.603945e+02 1.568395e+02 -2.103675e+03 
2.604017e+02 1.568375e+02 -2.103675e+03 
2.604091e+02 1.568371e+02 -2.103691e+03 
2.604066e+02 1.568395e+02 -2.103681e+03 
2.604100e+02 1.568388e+02 -2.103679e+03 
