2.548181e+02 -4.560291e+02 -2.103372e+03 
2.547554e+02 -4.560804e+02 -2.103362e+03 
2.546915e+02 -4.561128e+02 -2.103320e+03 
2.546199e+02 -4.561457e+02 -2.103291e+03 
2.545830e+02 -4.561696e+02 -2.103283e+03 
2.545611e+02 -4.561781e+02 -2.103250e+03 
2.545288e+02 -4.561842e+02 -2.103179e+03 
2.544804e+02 -4.562035e+02 -2.103149e+03 
2.544015e+02 -4.562127e+02 -2.103103e+03 
2.543148e+02 -4.562122e+02 -2.103055e+03 
2.542827e+02 -4.562078e+02 -2.103025e+03 
2.542805e+02 -4.562070e+02 -2.103006e+03 
2.542757e+02 -4.562064e+02 -2.103006e+03 
2.542605e+02 -4.562205e+02 -2.102986e+03 
2.542441e+02 -4.562320e+02 -2.103018e+03 
2.542183e+02 -4.562566e+02 -2.103035e+03 
2.541968e+02 -4.562780e+02 -2.103056e+03 
2.541795e+02 -4.563034e+02 -2.103088e+03 
2.541604e+02 -4.563201e+02 -2.103108e+03 
2.541508e+02 -4.563372e+02 -2.103117e+03 
2.541405e+02 -4.563527e+02 -2.103161e+03 
2.541374e+02 -4.563635e+02 -2.103156e+03 
2.541357e+02 -4.563705e+02 -2.103143e+03 
2.541384e+02 -4.563814e+02 -2.103170e+03 
2.541379e+02 -4.563900e+02 -2.103172e+03 
2.541412e+02 -4.563918e+02 -2.103188e+03 
2.541293e+02 -4.564000e+02 -2.103173e+03 
2.541299e+02 -4.563985e+02 -2.103198e+03 
2.541232e+02 -4.564005e+02 -2.103186e+03 
2.541195e+02 -4.563993e+02 -2.103182e+03 
2.541041e+02 -4.564031e+02 -2.103194e+03 
2.541067e+02 -4.564118e+02 -2.103227e+03 
2.540900e+02 -4.564217e+02 -2.103235e+03 
2.540898e+02 -4.564316e+02 -2.103255e+03 
2.540910e+02 -4.564416e+02 -2.103276e+03 
2.540894e+02 -4.564449e+02 -2.103292e+03 
2.540933e+02 -4.564608e+02 -2.103308e+03 
2.540999e+02 -4.564631e+02 -2.103338e+03 
2.541003e+02 -4.564709e+02 -2.103322e+03 
2.541102e+02 -4.564771e+02 -2.103375e+03 
2.541067e+02 -4.564723e+02 -2.103372e+03 
2.541060e+02 -4.564674e+02 -2.103368e+03 
2.540985e+02 -4.564603e+02 -2.103386e+03 
2.540937e+02 -4.564534e+02 -2.103406e+03 
2.540852e+02 -4.564453e+02 -2.103405e+03 
2.540839e+02 -4.564382e+02 -2.103418e+03 
2.540794e+02 -4.564316e+02 -2.103439e+03 
2.540757e+02 -4.564227e+02 -2.103438e+03 
2.540791e+02 -4.564217e+02 -2.103478e+03 
2.540886e+02 -4.564227e+02 -2.103496e+03 
2.540844e+02 -4.564238e+02 -2.103474e+03 
2.540851e+02 -4.564256e+02 -2.103489e+03 
2.540875e+02 -4.564319e+02 -2.103490e+03 
2.540868e+02 -4.564374e+02 -2.103521e+03 
2.540844e+02 -4.564408e+02 -2.103531e+03 
2.540793e+02 -4.564444e+02 -2.103546e+03 
2.540682e+02 -4.564560e+02 -2.103563e+03 
2.540572e+02 -4.564588e+02 -2.103562e+03 
2.540432e+02 -4.564622e+02 -2.103562e+03 
2.540354e+02 -4.564710e+02 -2.103569e+03 
2.540298e+02 -4.564730e+02 -2.103563e+03 
2.540352e+02 -4.564784e+02 -2.103568e+03 
2.540413e+02 -4.564815e+02 -2.103595e+03 
2.540401e+02 -4.564872e+02 -2.103594e+03 
2.540472e+02 -4.564907e+02 -2.103604e+03 
2.540525e+02 -4.565022e+02 -2.103639e+03 
2.540469e+02 -4.565025e+02 -2.103634e+03 
2.540471e+02 -4.565083e+02 -2.103637e+03 
2.540382e+02 -4.565090e+02 -2.103643e+03 
2.540291e+02 -4.565210e+02 -2.103690e+03 
2.540222e+02 -4.565203e+02 -2.103681e+03 
2.540081e+02 -4.565247e+02 -2.103700e+03 
2.539962e+02 -4.565311e+02 -2.103704e+03 
2.539748e+02 -4.565373e+02 -2.103700e+03 
2.539486e+02 -4.565357e+02 -2.103661e+03 
2.539420e+02 -4.565379e+02 -2.103673e+03 
2.539304e+02 -4.565370e+02 -2.103636e+03 
2.539300e+02 -4.565363e+02 -2.103640e+03 
2.539327e+02 -4.565386e+02 -2.103641e+03 

2.539395e+02 -4.565448e+02 -2.103662e+03 
2.539379e+02 -4.565526e+02 -2.103649e+03 
2.539337e+02 -4.565513e+02 -2.103651e+03 
2.539311e+02 -4.565524e+02 -2.103637e+03 
2.539296e+02 -4.565516e+02 -2.103653e+03 
2.539263e+02 -4.565570e+02 -2.103658e+03 
2.539141e+02 -4.565591e+02 -2.103659e+03 
2.538970e+02 -4.565612e+02 -2.103647e+03 
2.538852e+02 -4.565663e+02 -2.103673e+03 
2.538770e+02 -4.565727e+02 -2.103671e+03 
2.538649e+02 -4.565672e+02 -2.103655e+03 
2.538508e+02 -4.565736e+02 -2.103656e+03 
2.538524e+02 -4.565774e+02 -2.103648e+03 
2.538405e+02 -4.565797e+02 -2.103631e+03 
2.538361e+02 -4.565855e+02 -2.103657e+03 
2.538305e+02 -4.565855e+02 -2.103637e+03 
2.538274e+02 -4.565854e+02 -2.103637e+03 
2.538260e+02 -4.565930e+02 -2.103615e+03 
2.538256e+02 -4.565883e+02 -2.103630e+03 
2.538198e+02 -4.565966e+02 -2.103639e+03 
2.538119e+02 -4.565980e+02 -2.103637e+03 
2.538013e+02 -4.565962e+02 -2.103665e+03 
2.537923e+02 -4.565985e+02 -2.103659e+03 
2.537807e+02 -4.566036e+02 -2.103667e+03 
2.537765e+02 -4.566074e+02 -2.103685e+03 
2.537709e+02 -4.566096e+02 -2.103713e+03 
2.537611e+02 -4.566094e+02 -2.103679e+03 
2.537570e+02 -4.566147e+02 -2.103689e+03 
2.537683e+02 -4.566189e+02 -2.103741e+03 
2.537687e+02 -4.566202e+02 -2.103714e+03 
2.537774e+02 -4.566234e+02 -2.103730e+03 
2.537822e+02 -4.566355e+02 -2.103724e+03 
2.537859e+02 -4.566427e+02 -2.103744e+03 
2.537830e+02 -4.566436e+02 -2.103749e+03 
2.537783e+02 -4.566435e+02 -2.103749e+03 
2.537716e+02 -4.566269e+02 -2.103768e+03 
2.537659e+02 -4.566303e+02 -2.103807e+03 
2.537634e+02 -4.566201e+02 -2.103833e+03 
2.537560e+02 -4.566127e+02 -2.103871e+03 
2.537541e+02 -4.565917e+02 -2.103871e+03 
2.537606e+02 -4.565689e+02 -2.103931e+03 
2.537791e+02 -4.565353e+02 -2.103936e+03 
2.537892e+02 -4.565113e+02 -2.103958e+03 
2.538047e+02 -4.564800e+02 -2.103981e+03 
2.538143e+02 -4.564453e+02 -2.103988e+03 
2.538306e+02 -4.563948e+02 -2.104017e+03 
2.538297e+02 -4.563211e+02 -2.103983e+03 
2.538441e+02 -4.562231e+02 -2.104014e+03 
2.538331e+02 -4.561323e+02 -2.104050e+03 
2.537996e+02 -4.560314e+02 -2.104059e+03 
2.537540e+02 -4.559063e+02 -2.104139e+03 
2.537189e+02 -4.557505e+02 -2.104100e+03 
2.536861e+02 -4.555718e+02 -2.103989e+03 
2.536327e+02 -4.553724e+02 -2.103964e+03 
2.535584e+02 -4.551491e+02 -2.103856e+03 
2.534714e+02 -4.548689e+02 -2.103706e+03 
2.533721e+02 -4.545314e+02 -2.103574e+03 
2.532720e+02 -4.541783e+02 -2.103300e+03 
2.531886e+02 -4.538580e+02 -2.103086e+03 
2.531287e+02 -4.535079e+02 -2.102745e+03 
2.529874e+02 -4.530340e+02 -2.102274e+03 
2.527357e+02 -4.523580e+02 -2.101754e+03 
2.524076e+02 -4.514947e+02 -2.101190e+03 
2.519451e+02 -4.503376e+02 -2.100333e+03 
2.515052e+02 -4.489548e+02 -2.099420e+03 
2.510192e+02 -4.474358e+02 -2.098285e+03 
2.506451e+02 -4.457870e+02 -2.096882e+03 
2.504196e+02 -4.440130e+02 -2.095499e+03 
2.503401e+02 -4.422136e+02 -2.094264e+03 
2.504105e+02 -4.402714e+02 -2.092513e+03 
2.505138e+02 -4.382918e+02 -2.090825e+03 
2.507657e+02 -4.362564e+02 -2.089056e+03 
2.511067e+02 -4.341542e+02 -2.087324e+03 
2.514852e+02 -4.319818e+02 -2.085609e+03 
2.518772e+02 -4.297250e+02 -2.083962e+03 
2.522300e+02 -4.274115e+02 -2.082319e+03 
2.525800e+02 -4.250164e+02 -2.080594e+03 
2.529821e+02 -4.225502e+02 -2.079195e+03 
2.533266e+02 -4.199491e+02 -2.077501e+03 
2.537110e+02 -4.173109e+02 -2.075956e+03 
2.541017e+02 -4.145438e+02 -2.074492e+03 
2.545187e+02 -4.117489e+02 -2.073128e+03 
2.548978e+02 -4.087279e+02 -2.071608e+03 
2.553007e+02 -4.056543e+02 -2.070216e+03 
2.556778e+02 -4.024317e+02 -2.068679e+03 
2.560518e+02 -3.990692e+02 -2.067296e+03 
2.563672e+02 -3.955270e+02 -2.066108e+03 
2.566219e+02 -3.917764e+02 -2.064717e+03 
2.568835e+02 -3.878538e+02 -2.063390e+03 
2.569099e+02 -3.837893e+02 -2.061908e+03 
2.570019e+02 -3.794638e+02 -2.060852e+03 
2.568931e+02 -3.750792e+02 -2.059777e+03 
2.567288e+02 -3.705049e+02 -2.058694e+03 
2.565215e+02 -3.657766e+02 -2.057809e+03 
2.562480e+02 -3.608602e+02 -2.056726e+03 
2.559705e+02 -3.558607e+02 -2.055921e+03 
2.556015e+02 -3.507416e+02 -2.055370e+03 
2.551091e+02 -3.454568e+02 -2.054411e+03 
2.547629e+02 -3.400443e+02 -2.053896e+03 
2.542838e+02 -3.344657e+02 -2.053160e+03 
2.538445e+02 -3.287950e+02 -2.052414e+03 
2.533758e+02 -3.229967e+02 -2.051793e+03 
2.529156e+02 -3.169866e+02 -2.051178e+03 
2.524321e+02 -3.109533e+02 -2.050498e+03 
2.520096e+02 -3.047694e+02 -2.050135e+03 
2.515212e+02 -2.985018e+02 -2.049491e+03 
2.510860e+02 -2.920747e+02 -2.048773e+03 
2.506736e+02 -2.856006e+02 -2.048302e+03 
2.502328e+02 -2.789156e+02 -2.047603e+03 
2.498873e+02 -2.721729e+02 -2.047317e+03 
2.494646e+02 -2.653233e+02 -2.046800e+03 
2.491390e+02 -2.583986e+02 -2.046461e+03 
2.488089e+02 -2.513904e+02 -2.046078e+03 
2.484846e+02 -2.442930e+02 -2.045954e+03 
2.481969e+02 -2.370879e+02 -2.045709e+03 
2.479547e+02 -2.298961e+02 -2.045458e+03 
2.477122e+02 -2.225887e+02 -2.045336e+03 
2.474887e+02 -2.152041e+02 -2.045247e+03 
2.472831e+02 -2.077714e+02 -2.045159e+03 
2.471153e+02 -2.002767e+02 -2.045267e+03 
2.470081e+02 -1.927152e+02 -2.045459e+03 
2.468948e+02 -1.851338e+02 -2.045573e+03 
2.468113e+02 -1.774938e+02 -2.045792e+03 
2.467475e+02 -1.698317e+02 -2.046035e+03 
2.467242e+02 -1.622097e+02 -2.046403e+03 
2.467017e+02 -1.545995e+02 -2.046768e+03 
2.467462e+02 -1.470648e+02 -2.047359e+03 
2.468121e+02 -1.395674e+02 -2.047965e+03 
2.469065e+02 -1.321113e+02 -2.048521e+03 
2.470451e+02 -1.247256e+02 -2.049059e+03 
2.472506e+02 -1.174042e+02 -2.049793e+03 
2.474442e+02 -1.101303e+02 -2.050368e+03 
2.477221e+02 -1.028857e+02 -2.051015e+03 
2.480291e+02 -9.570248e+01 -2.051775e+03 
2.484016e+02 -8.850881e+01 -2.052559e+03 
2.487962e+02 -8.136272e+01 -2.053187e+03 
2.492744e+02 -7.425530e+01 -2.053843e+03 
2.498167e+02 -6.718887e+01 -2.054542e+03 
2.504231e+02 -6.016259e+01 -2.055256e+03 
2.511277e+02 -5.323705e+01 -2.055918e+03 
2.518635e+02 -4.638387e+01 -2.056454e+03 
2.526427e+02 -3.962506e+01 -2.057133e+03 
2.534712e+02 -3.298119e+01 -2.057756e+03 
2.543271e+02 -2.648698e+01 -2.058453e+03 
2.552004e+02 -2.008381e+01 -2.059113e+03 
2.561527e+02 -1.383258e+01 -2.059968e+03 
2.570063e+02 -7.708928e+00 -2.060604e+03 
2.578950e+02 -1.700573e+00 -2.061513e+03 
2.588192e+02 4.149188e+00 -2.062360e+03 
2.596814e+02 9.916235e+00 -2.063116e+03 
2.605728e+02 1.559934e+01 -2.064017e+03 
2.614294e+02 2.120951e+01 -2.064842e+03 
2.622560e+02 2.677801e+01 -2.065734e+03 
2.630577e+02 3.225799e+01 -2.066620e+03 
2.638423e+02 3.769350e+01 -2.067559e+03 
2.645152e+02 4.300888e+01 -2.068476e+03 
2.651217e+02 4.818427e+01 -2.069371e+03 
2.657034e+02 5.325690e+01 -2.070404e+03 
2.661939e+02 5.813215e+01 -2.071370e+03 
2.666791e+02 6.283014e+01 -2.072410e+03 
2.671085e+02 6.740286e+01 -2.073454e+03 
2.675454e+02 7.183965e+01 -2.074572e+03 
2.679443e+02 7.612628e+01 -2.075531e+03 
2.683745e+02 8.028075e+01 -2.076457e+03 
2.688411e+02 8.434527e+01 -2.077401e+03 
2.693488e+02 8.825656e+01 -2.078138e+03 
2.699073e+02 9.209631e+01 -2.078885e+03 
2.705096e+02 9.583849e+01 -2.079594e+03 
2.711656e+02 9.947302e+01 -2.080242e+03 
2.718511e+02 1.030263e+02 -2.080870e+03 
2.725350e+02 1.064939e+02 -2.081386e+03 
2.732255e+02 1.098733e+02 -2.081875e+03 
2.739177e+02 1.131377e+02 -2.082335e+03 
2.746021e+02 1.163201e+02 -2.082843e+03 
2.752484e+02 1.193868e+02 -2.083270e+03 
2.758622e+02 1.223488e+02 -2.083788e+03 
2.764031e+02 1.251653e+02 -2.084181e+03 
2.769229e+02 1.278988e+02 -2.084710e+03 
2.773691e+02 1.305040e+02 -2.085212e+03 
2.777545e+02 1.329543e+02 -2.085653e+03 
2.780789e+02 1.353150e+02 -2.086116e+03 
2.783824e+02 1.375482e+02 -2.086597e+03 
2.786449e+02 1.396677e+02 -2.087148e+03 
2.788398e+02 1.416602e+02 -2.087626e+03 
2.790063e+02 1.435236e+02 -2.088106e+03 
2.791411e+02 1.452847e+02 -2.088592e+03 
2.792299e+02 1.469115e+02 -2.088988e+03 
2.792943e+02 1.484634e+02 -2.089496e+03 
2.793073e+02 1.498995e+02 -2.089882e+03 
2.792954e+02 1.512528e+02 -2.090292e+03 
2.792759e+02 1.525492e+02 -2.090727e+03 
2.792505e+02 1.538124e+02 -2.091132e+03 
2.792123e+02 1.550063e+02 -2.091507e+03 
2.791735e+02 1.561550e+02 -2.091840e+03 
2.791344e+02 1.572846e+02 -2.092160e+03 
2.791143e+02 1.584011e+02 -2.092499e+03 
2.791063e+02 1.594940e+02 -2.092816e+03 
2.790939e+02 1.605144e+02 -2.093045e+03 
2.790986e+02 1.615026e+02 -2.093291e+03 
2.791108e+02 1.624359e+02 -2.093517e+03 
2.790899e+02 1.632919e+02 -2.093615e+03 
2.790581e+02 1.640652e+02 -2.093757e+03 
2.789952e+02 1.647598e+02 -2.093922e+03 
2.789037e+02 1.653694e+02 -2.094083e+03 
2.787850e+02 1.659243e+02 -2.094272e+03 
2.786258e+02 1.664127e+02 -2.094408e+03 
2.784604e+02 1.668524e+02 -2.094607e+03 
2.782387e+02 1.672451e+02 -2.094757e+03 
2.780125e+02 1.676134e+02 -2.094971e+03 
2.777616e+02 1.679615e+02 -2.095150e+03 
2.774855e+02 1.682743e+02 -2.095335e+03 
2.772008e+02 1.685844e+02 -2.095546e+03 
2.768885e+02 1.688620e+02 -2.095718e+03 
2.765784e+02 1.691378e+02 -2.095961e+03 
2.762471e+02 1.693887e+02 -2.096134e+03 
2.759037e+02 1.696178e+02 -2.096294e+03 
2.755848e+02 1.698464e+02 -2.096532e+03 
2.752398e+02 1.700419e+02 -2.096694e+03 
2.749109e+02 1.702287e+02 -2.096882e+03 
2.745670e+02 1.703901e+02 -2.097066e+03 
2.742334e+02 1.705087e+02 -2.097197e+03 
2.739056e+02 1.705901e+02 -2.097326e+03 
2.735944e+02 1.706468e+02 -2.097452e+03 
2.732787e+02 1.706789e+02 -2.097557e+03 
2.729739e+02 1.707032e+02 -2.097655e+03 
2.726802e+02 1.707222e+02 -2.097735e+03 
2.723883e+02 1.707589e+02 -2.097814e+03 
2.721107e+02 1.708096e+02 -2.097905e+03 
2.718557e+02 1.708767e+02 -2.098007e+03 
2.715889e+02 1.709510e+02 -2.098106e+03 
2.713358e+02 1.710218e+02 -2.098219e+03 
2.710642e+02 1.710853e+02 -2.098353e+03 
2.707833e+02 1.711231e+02 -2.098524e+03 
2.704777e+02 1.711343e+02 -2.098702e+03 
2.701796e+02 1.711233e+02 -2.098924e+03 
2.698447e+02 1.710798e+02 -2.099159e+03 
2.695262e+02 1.710168e+02 -2.099441e+03 
2.691813e+02 1.709236e+02 -2.099757e+03 
2.688487e+02 1.708125e+02 -2.100080e+03 
2.684891e+02 1.706833e+02 -2.100396e+03 
2.681217e+02 1.705317e+02 -2.100754e+03 
2.677613e+02 1.703633e+02 -2.101089e+03 
2.673853e+02 1.701881e+02 -2.101431e+03 
2.670060e+02 1.700108e+02 -2.101828e+03 
2.666189e+02 1.698473e+02 -2.102214e+03 
2.662178e+02 1.696927e+02 -2.102659e+03 
2.658064e+02 1.695549e+02 -2.103083e+03 
2.654091e+02 1.694391e+02 -2.103504e+03 
2.650109e+02 1.693321e+02 -2.103975e+03 
2.645939e+02 1.692475e+02 -2.104477e+03 
2.642043e+02 1.691964e+02 -2.104962e+03 
2.641849e+02 1.692148e+02 -2.105073e+03 
2.642760e+02 1.692074e+02 -2.105019e+03 
2.642373e+02 1.691823e+02 -2.105053e+03 
2.640957e+02 1.691174e+02 -2.105209e+03 
2.640616e+02 1.690917e+02 -2.105274e+03 
2.640615e+02 1.690657e+02 -2.105322e+03 
2.640420e+02 1.690640e+02 -2.105405e+03 
2.640171e+02 1.690937e+02 -2.105506e+03 
2.640085e+02 1.691530e+02 -2.105605e+03 
2.639914e+02 1.692084e+02 -2.105720e+03 
2.639774e+02 1.692475e+02 -2.105824e+03 
2.639815e+02 1.692640e+02 -2.105893e+03 
2.639970e+02 1.693122e+02 -2.105958e+03 
2.640455e+02 1.693344e+02 -2.106019e+03 
2.640910e+02 1.693558e+02 -2.106066e+03 
2.641421e+02 1.693766e+02 -2.106126e+03 
2.642170e+02 1.693989e+02 -2.106213e+03 
2.643140e+02 1.694148e+02 -2.106305e+03 
2.644412e+02 1.694327e+02 -2.106440e+03 
2.645877e+02 1.694417e+02 -2.106602e+03 
2.647365e+02 1.694350e+02 -2.106772e+03 
2.648746e+02 1.694095e+02 -2.106934e+03 
2.650217e+02 1.693396e+02 -2.107042e+03 
2.651373e+02 1.692347e+02 -2.107166e+03 
2.652422e+02 1.691076e+02 -2.107306e+03 
2.653507e+02 1.689339e+02 -2.107443e+03 
2.654730e+02 1.687543e+02 -2.107512e+03 
2.655922e+02 1.685865e+02 -2.107572e+03 
2.657331e+02 1.684411e+02 -2.107610e+03 
2.659005e+02 1.683424e+02 -2.107632e+03 
2.660599e+02 1.682659e+02 -2.107639e+03 
2.661677e+02 1.681907e+02 -2.107638e+03 
2.662184e+02 1.681263e+02 -2.107674e+03 
2.662013e+02 1.680659e+02 -2.107692e+03 
2.661300e+02 1.680233e+02 -2.107727e+03 
2.660310e+02 1.679842e+02 -2.107778e+03 
2.659156e+02 1.679556e+02 -2.107799e+03 
2.658293e+02 1.679580e+02 -2.107787e+03 
2.658074e+02 1.680040e+02 -2.107762e+03 
2.657864e+02 1.680596e+02 -2.107717e+03 
2.657513e+02 1.681214e+02 -2.107709e+03 
2.657206e+02 1.681802e+02 -2.107719e+03 
2.656891e+02 1.682317e+02 -2.107698e+03 
2.656891e+02 1.682812e+02 -2.107677e+03 
2.656846e+02 1.683204e+02 -2.107653e+03 
2.656782e+02 1.683481e+02 -2.107643e+03 
2.656688e+02 1.683557e+02 -2.107634e+03 
2.656595e+02 1.683535e+02 -2.107642e+03 
2.656597e+02 1.683522e+02 -2.107653e+03 
2.656526e+02 1.683566e+02 -2.107655e+03 
2.656463e+02 1.683559e+02 -2.107637e+03 
2.656349e+02 1.683516e+02 -2.107651e+03 
2.656158e+02 1.683450e+02 -2.107642e+03 
2.656057e+02 1.683413e+02 -2.107639e+03 
2.655966e+02 1.683407e+02 -2.107641e+03 
2.655973e+02 1.683403e+02 -2.107655e+03 
2.655985e+02 1.683400e+02 -2.107646e+03 
2.656052e+02 1.683397e+02 -2.107635e+03 
2.656073e+02 1.683380e+02 -2.107631e+03 
2.656111e+02 1.683385e+02 -2.107632e+03 
2.656113e+02 1.683395e+02 -2.107627e+03 
2.656066e+02 1.683438e+02 -2.107635e+03 
2.655944e+02 1.683472e+02 -2.107634e+03 
2.655919e+02 1.683495e+02 -2.107631e+03 
2.655800e+02 1.683518e+02 -2.107634e+03 
2.655670e+02 1.683496e+02 -2.107622e+03 
2.655656e+02 1.683534e+02 -2.107629e+03 
2.655537e+02 1.683535e+02 -2.107619e+03 
2.655547e+02 1.683589e+02 -2.107613e+03 
2.655545e+02 1.683609e+02 -2.107608e+03 
2.655538e+02 1.683591e+02 -2.107598e+03 
2.655520e+02 1.683605e+02 -2.107589e+03 
2.655583e+02 1.683611e+02 -2.107584e+03 
2.655584e+02 1.683625e+02 -2.107570e+03 
2.655563e+02 1.683644e+02 -2.107574e+03 
2.655558e+02 1.683654e+02 -2.107570e+03 
2.655432e+02 1.683668e+02 -2.107569e+03 
2.655320e+02 1.683660e+02 -2.107566e+03 
2.655173e+02 1.683674e+02 -2.107563e+03 
2.655034e+02 1.683693e+02 -2.107569e+03 
2.654951e+02 1.683703e+02 -2.107564e+03 
2.654959e+02 1.683695e+02 -2.107562e+03 
2.654917e+02 1.683701e+02 -2.107543e+03 
2.654925e+02 1.683722e+02 -2.107553e+03 
2.654958e+02 1.683730e+02 -2.107555e+03 
2.654991e+02 1.683743e+02 -2.107541e+03 
2.655043e+02 1.683748e+02 -2.107542e+03 
2.655087e+02 1.683733e+02 -2.107533e+03 
2.655057e+02 1.683737e+02 -2.107530e+03 
2.654977e+02 1.683731e+02 -2.107530e+03 
2.654865e+02 1.683721e+02 -2.107518e+03 
2.654763e+02 1.683749e+02 -2.107523e+03 
2.654507e+02 1.683795e+02 -2.107508e+03 
2.654379e+02 1.683853e+02 -2.107497e+03 
2.654156e+02 1.683920e+02 -2.107482e+03 
2.653952e+02 1.684020e+02 -2.107456e+03 
2.653859e+02 1.684169e+02 -2.107442e+03 
2.653746e+02 1.684304e+02 -2.107424e+03 
2.653717e+02 1.684411e+02 -2.107410e+03 
2.653748e+02 1.684445e+02 -2.107389e+03 
2.653792e+02 1.684516e+02 -2.107389e+03 
2.653798e+02 1.684570e+02 -2.107385e+03 
2.653779e+02 1.684603e+02 -2.107374e+03 
2.653747e+02 1.684614e+02 -2.107379e+03 
2.653623e+02 1.684653e+02 -2.107385e+03 
2.653542e+02 1.684636e+02 -2.107379e+03 
2.653424e+02 1.684647e+02 -2.107374e+03 
2.653320e+02 1.684640e+02 -2.107378e+03 
2.653370e+02 1.684610e+02 -2.107390e+03 
2.653376e+02 1.684590e+02 -2.107391e+03 
2.653438e+02 1.684500e+02 -2.107392e+03 
2.653587e+02 1.684416e+02 -2.107394e+03 
2.653718e+02 1.684269e+02 -2.107404e+03 
2.653878e+02 1.684081e+02 -2.107412e+03 
2.654108e+02 1.683841e+02 -2.107432e+03 
2.654305e+02 1.683579e+02 -2.107451e+03 
2.654518e+02 1.683286e+02 -2.107471e+03 
2.654566e+02 1.683100e+02 -2.107477e+03 
2.654571e+02 1.682989e+02 -2.107489e+03 
2.654474e+02 1.682929e+02 -2.107492e+03 
2.654373e+02 1.682897e+02 -2.107493e+03 
2.654282e+02 1.682887e+02 -2.107488e+03 
2.654292e+02 1.682910e+02 -2.107492e+03 
2.654295e+02 1.682927e+02 -2.107490e+03 
2.654336e+02 1.682995e+02 -2.107480e+03 
2.654372e+02 1.683081e+02 -2.107480e+03 
2.654424e+02 1.683234e+02 -2.107472e+03 
2.654468e+02 1.683438e+02 -2.107474e+03 
2.654543e+02 1.683587e+02 -2.107462e+03 
2.654354e+02 1.683660e+02 -2.107465e+03 
2.654153e+02 1.683718e+02 -2.107439e+03 
2.653928e+02 1.683867e+02 -2.107412e+03 
2.653803e+02 1.683986e+02 -2.107403e+03 
2.653529e+02 1.684057e+02 -2.107386e+03 
2.653316e+02 1.684137e+02 -2.107372e+03 
2.653049e+02 1.684222e+02 -2.107349e+03 
2.652929e+02 1.684311e+02 -2.107344e+03 
2.652889e+02 1.684308e+02 -2.107353e+03 
2.652971e+02 1.684264e+02 -2.107346e+03 
2.653077e+02 1.684185e+02 -2.107351e+03 
2.653147e+02 1.684068e+02 -2.107340e+03 
2.653198e+02 1.683924e+02 -2.107340e+03 
2.653172e+02 1.683761e+02 -2.107345e+03 
2.653135e+02 1.683547e+02 -2.107342e+03 
2.653174e+02 1.683286e+02 -2.107343e+03 
2.653252e+02 1.682949e+02 -2.107352e+03 
2.653345e+02 1.682570e+02 -2.107361e+03 
2.653506e+02 1.682169e+02 -2.107387e+03 
2.653756e+02 1.681765e+02 -2.107411e+03 
2.654028e+02 1.681411e+02 -2.107433e+03 
2.654297e+02 1.681133e+02 -2.107455e+03 
2.654567e+02 1.680911e+02 -2.107479e+03 
2.654879e+02 1.680765e+02 -2.107493e+03 
2.655076e+02 1.680668e+02 -2.107495e+03 
2.655309e+02 1.680592e+02 -2.107513e+03 
2.655564e+02 1.680515e+02 -2.107527e+03 
2.655797e+02 1.680434e+02 -2.107552e+03 
2.655983e+02 1.680302e+02 -2.107570e+03 
2.656070e+02 1.680214e+02 -2.107569e+03 
2.656096e+02 1.680143e+02 -2.107585e+03 
2.656056e+02 1.680004e+02 -2.107586e+03 
2.656158e+02 1.679840e+02 -2.107600e+03 
2.656328e+02 1.679595e+02 -2.107616e+03 
2.656551e+02 1.679304e+02 -2.107646e+03 
2.656765e+02 1.679016e+02 -2.107657e+03 
2.656959e+02 1.678815e+02 -2.107677e+03 
2.657158e+02 1.678608e+02 -2.107708e+03 
2.657328e+02 1.678396e+02 -2.107719e+03 
2.657470e+02 1.678267e+02 -2.107723e+03 
2.657592e+02 1.678182e+02 -2.107738e+03 
2.657560e+02 1.678074e+02 -2.107737e+03 
2.657525e+02 1.678002e+02 -2.107729e+03 
2.657502e+02 1.677950e+02 -2.107750e+03 
2.657435e+02 1.677835e+02 -2.107751e+03 
2.657423e+02 1.677660e+02 -2.107753e+03 
2.657406e+02 1.677546e+02 -2.107766e+03 
2.657422e+02 1.677408e+02 -2.107768e+03 
2.657445e+02 1.677280e+02 -2.107775e+03 
2.657488e+02 1.677199e+02 -2.107783e+03 
2.657555e+02 1.677139e+02 -2.107794e+03 
2.657711e+02 1.677065e+02 -2.107792e+03 
2.657878e+02 1.676992e+02 -2.107807e+03 
2.658016e+02 1.676949e+02 -2.107813e+03 
2.658115e+02 1.676947e+02 -2.107818e+03 
2.658144e+02 1.676939e+02 -2.107821e+03 
2.658180e+02 1.676918e+02 -2.107833e+03 
2.658208e+02 1.676871e+02 -2.107831e+03 
2.658225e+02 1.676770e+02 -2.107855e+03 
2.658258e+02 1.676637e+02 -2.107854e+03 
2.658273e+02 1.676504e+02 -2.107862e+03 
2.658391e+02 1.676363e+02 -2.107874e+03 
2.658474e+02 1.676238e+02 -2.107883e+03 
2.658565e+02 1.676196e+02 -2.107887e+03 
2.658551e+02 1.676127e+02 -2.107882e+03 
2.658617e+02 1.676066e+02 -2.107882e+03 
2.658739e+02 1.676036e+02 -2.107896e+03 
2.658856e+02 1.676005e+02 -2.107893e+03 
2.658997e+02 1.675952e+02 -2.107910e+03 
2.659302e+02 1.675719e+02 -2.107933e+03 
2.659670e+02 1.675503e+02 -2.107973e+03 
2.660017e+02 1.675280e+02 -2.108003e+03 
2.660278e+02 1.675075e+02 -2.108019e+03 
2.660451e+02 1.675021e+02 -2.108060e+03 
2.660569e+02 1.674861e+02 -2.108071e+03 
2.660591e+02 1.674698e+02 -2.108067e+03 
2.660635e+02 1.674626e+02 -2.108069e+03 
2.660642e+02 1.674555e+02 -2.108054e+03 
2.660726e+02 1.674580e+02 -2.108072e+03 
2.660720e+02 1.674612e+02 -2.108053e+03 
2.660812e+02 1.674731e+02 -2.108067e+03 
2.660914e+02 1.674813e+02 -2.108063e+03 
2.660871e+02 1.674776e+02 -2.108060e+03 
2.660833e+02 1.674793e+02 -2.108073e+03 
2.660766e+02 1.674806e+02 -2.108055e+03 
2.660596e+02 1.674833e+02 -2.108054e+03 
2.660537e+02 1.674836e+02 -2.108052e+03 
2.660446e+02 1.674850e+02 -2.108059e+03 
2.660377e+02 1.674825e+02 -2.108044e+03 
2.660296e+02 1.674855e+02 -2.108053e+03 
2.660312e+02 1.674846e+02 -2.108052e+03 
2.660344e+02 1.674850e+02 -2.108050e+03 
2.660381e+02 1.674895e+02 -2.108048e+03 
2.660396e+02 1.674899e+02 -2.108033e+03 
2.660415e+02 1.674940e+02 -2.108025e+03 
2.660389e+02 1.675034e+02 -2.108040e+03 
2.660328e+02 1.675127e+02 -2.108021e+03 
2.660174e+02 1.675229e+02 -2.108010e+03 
2.659942e+02 1.675375e+02 -2.108015e+03 
2.659662e+02 1.675495e+02 -2.107991e+03 
2.659465e+02 1.675612e+02 -2.107992e+03 
2.659256e+02 1.675668e+02 -2.107976e+03 
2.659186e+02 1.675696e+02 -2.107986e+03 
2.659266e+02 1.675718e+02 -2.107986e+03 
2.659301e+02 1.675717e+02 -2.107981e+03 
2.659357e+02 1.675673e+02 -2.107981e+03 
2.659483e+02 1.675688e+02 -2.107979e+03 
2.659496e+02 1.675658e+02 -2.107958e+03 
2.659536e+02 1.675679e+02 -2.107973e+03 
2.659567e+02 1.675680e+02 -2.107962e+03 
2.659510e+02 1.675706e+02 -2.107970e+03 
2.659455e+02 1.675734e+02 -2.107976e+03 
2.659293e+02 1.675744e+02 -2.107964e+03 
2.659148e+02 1.675814e+02 -2.107965e+03 
2.658951e+02 1.675853e+02 -2.107958e+03 
2.658839e+02 1.675895e+02 -2.107949e+03 
2.658723e+02 1.675943e+02 -2.107952e+03 
2.658763e+02 1.675950e+02 -2.107949e+03 
2.658864e+02 1.675967e+02 -2.107954e+03 
2.658948e+02 1.675966e+02 -2.107962e+03 
2.659059e+02 1.675943e+02 -2.107950e+03 
2.659208e+02 1.675945e+02 -2.107956e+03 
2.659264e+02 1.675939e+02 -2.107952e+03 
2.659271e+02 1.675905e+02 -2.107945e+03 
2.659266e+02 1.675906e+02 -2.107941e+03 
2.659164e+02 1.675894e+02 -2.107940e+03 
2.659071e+02 1.675902e+02 -2.107956e+03 
2.658983e+02 1.675885e+02 -2.107952e+03 
2.658919e+02 1.675895e+02 -2.107954e+03 
2.658817e+02 1.675878e+02 -2.107959e+03 
2.658783e+02 1.675904e+02 -2.107958e+03 
2.658797e+02 1.675912e+02 -2.107959e+03 
2.658826e+02 1.675943e+02 -2.107954e+03 
2.658928e+02 1.675909e+02 -2.107948e+03 
2.659024e+02 1.675932e+02 -2.107944e+03 
2.659062e+02 1.675914e+02 -2.107948e+03 
2.659185e+02 1.675896e+02 -2.107954e+03 
2.659172e+02 1.675858e+02 -2.107934e+03 
2.659102e+02 1.675829e+02 -2.107939e+03 
2.659017e+02 1.675832e+02 -2.107946e+03 
2.658922e+02 1.675785e+02 -2.107941e+03 
