2.428593e+02 -4.485874e+02 -2.094382e+03 
2.428575e+02 -4.485913e+02 -2.094380e+03 
2.428579e+02 -4.485974e+02 -2.094396e+03 
2.428598e+02 -4.485937e+02 -2.094390e+03 
2.428613e+02 -4.486042e+02 -2.094420e+03 
2.428573e+02 -4.486080e+02 -2.094406e+03 
2.428561e+02 -4.486034e+02 -2.094389e+03 
2.428506e+02 -4.486080e+02 -2.094400e+03 
2.428434e+02 -4.486154e+02 -2.094406e+03 
2.428498e+02 -4.486153e+02 -2.094415e+03 
2.428508e+02 -4.486141e+02 -2.094391e+03 
2.428524e+02 -4.486197e+02 -2.094406e+03 
2.428568e+02 -4.486153e+02 -2.094385e+03 
2.428603e+02 -4.486208e+02 -2.094402e+03 
2.428577e+02 -4.486184e+02 -2.094394e+03 
2.428641e+02 -4.486230e+02 -2.094394e+03 
2.428582e+02 -4.486229e+02 -2.094394e+03 
2.428685e+02 -4.486235e+02 -2.094399e+03 
2.428567e+02 -4.486259e+02 -2.094401e+03 
2.428530e+02 -4.486216e+02 -2.094387e+03 
2.428462e+02 -4.486251e+02 -2.094393e+03 
2.428513e+02 -4.486168e+02 -2.094404e+03 
2.428445e+02 -4.486154e+02 -2.094369e+03 
2.428581e+02 -4.486169e+02 -2.094407e+03 
2.428610e+02 -4.486241e+02 -2.094431e+03 
2.428591e+02 -4.486129e+02 -2.094366e+03 
2.428642e+02 -4.486186e+02 -2.094377e+03 
2.428756e+02 -4.486184e+02 -2.094388e+03 
2.428818e+02 -4.486238e+02 -2.094425e+03 
2.428844e+02 -4.486188e+02 -2.094419e+03 
2.428715e+02 -4.486199e+02 -2.094389e+03 
2.428747e+02 -4.486255e+02 -2.094407e+03 
2.428705e+02 -4.486241e+02 -2.094389e+03 
2.428687e+02 -4.486284e+02 -2.094431e+03 
2.428585e+02 -4.486292e+02 -2.094397e+03 
2.428579e+02 -4.486365e+02 -2.094422e+03 
2.428615e+02 -4.486459e+02 -2.094444e+03 
2.428551e+02 -4.486479e+02 -2.094400e+03 
2.428634e+02 -4.486454e+02 -2.094440e+03 
2.428762e+02 -4.486578e+02 -2.094451e+03 
2.428818e+02 -4.486610e+02 -2.094460e+03 
2.428830e+02 -4.486593e+02 -2.094428e+03 
2.428958e+02 -4.486685e+02 -2.094474e+03 
2.428961e+02 -4.486703e+02 -2.094480e+03 
2.428920e+02 -4.486726e+02 -2.094429e+03 
2.428911e+02 -4.486763e+02 -2.094470e+03 
2.428817e+02 -4.486833e+02 -2.094482e+03 
2.428808e+02 -4.486840e+02 -2.094481e+03 
2.428728e+02 -4.486831e+02 -2.094457e+03 
2.428689e+02 -4.486749e+02 -2.094428e+03 
2.428724e+02 -4.486775e+02 -2.094473e+03 
2.428762e+02 -4.486810e+02 -2.094458e+03 
2.428776e+02 -4.486725e+02 -2.094437e+03 
2.428802e+02 -4.486717e+02 -2.094434e+03 
2.428910e+02 -4.486651e+02 -2.094432e+03 
2.428954e+02 -4.486721e+02 -2.094447e+03 
2.428946e+02 -4.486773e+02 -2.094441e+03 
2.429004e+02 -4.486792e+02 -2.094459e+03 
2.428947e+02 -4.486693e+02 -2.094424e+03 
2.428889e+02 -4.486761e+02 -2.094438e+03 
2.428815e+02 -4.486767e+02 -2.094445e+03 
2.428687e+02 -4.486766e+02 -2.094439e+03 
2.428678e+02 -4.486809e+02 -2.094463e+03 
2.428679e+02 -4.486799e+02 -2.094467e+03 
2.428628e+02 -4.486857e+02 -2.094463e+03 
2.428689e+02 -4.486773e+02 -2.094459e+03 
2.428804e+02 -4.486730e+02 -2.094455e+03 
2.428844e+02 -4.486743e+02 -2.094449e+03 
2.428906e+02 -4.486737e+02 -2.094458e+03 
2.429031e+02 -4.486760e+02 -2.094464e+03 
2.429088e+02 -4.486644e+02 -2.094463e+03 
2.428998e+02 -4.486665e+02 -2.094430e+03 
2.429110e+02 -4.486632e+02 -2.094466e+03 
2.429042e+02 -4.486640e+02 -2.094438e+03 
2.428989e+02 -4.486579e+02 -2.094446e+03 
2.428897e+02 -4.486622e+02 -2.094475e+03 
2.428776e+02 -4.486584e+02 -2.094464e+03 
2.428709e+02 -4.486604e+02 -2.094452e+03 
2.428791e+02 -4.486622e+02 -2.094461e+03 
2.428808e+02 -4.486649e+02 -2.094444e+03 
2.428922e+02 -4.486643e+02 -2.094461e+03 
2.428982e+02 -4.486676e+02 -2.094458e+03 
2.429104e+02 -4.486716e+02 -2.094471e+03 
2.429093e+02 -4.486647e+02 -2.094473e+03 
2.429097e+02 -4.486665e+02 -2.094462e+03 
2.429084e+02 -4.486665e+02 -2.094468e+03 
2.429082e+02 -4.486600e+02 -2.094487e+03 
2.428978e+02 -4.486595e+02 -2.094443e+03 
2.428834e+02 -4.486587e+02 -2.094449e+03 
2.428831e+02 -4.486574e+02 -2.094454e+03 
2.428720e+02 -4.486604e+02 -2.094448e+03 
2.428715e+02 -4.486537e+02 -2.094441e+03 
2.428732e+02 -4.486561e+02 -2.094464e+03 
2.428843e+02 -4.486496e+02 -2.094452e+03 
2.428892e+02 -4.486563e+02 -2.094455e+03 
2.428928e+02 -4.486514e+02 -2.094436e+03 
2.429052e+02 -4.486492e+02 -2.094448e+03 
2.429112e+02 -4.486476e+02 -2.094458e+03 
2.429064e+02 -4.486407e+02 -2.094446e+03 
2.429054e+02 -4.486408e+02 -2.094450e+03 
2.429004e+02 -4.486450e+02 -2.094475e+03 
2.428984e+02 -4.486411e+02 -2.094424e+03 
2.428844e+02 -4.486384e+02 -2.094446e+03 
2.428694e+02 -4.486394e+02 -2.094420e+03 
2.428716e+02 -4.486351e+02 -2.094441e+03 
2.428592e+02 -4.486320e+02 -2.094414e+03 
2.428616e+02 -4.486331e+02 -2.094410e+03 
2.428498e+02 -4.486384e+02 -2.094404e+03 
2.428366e+02 -4.486648e+02 -2.094388e+03 
2.428274e+02 -4.487060e+02 -2.094371e+03 
2.428096e+02 -4.487462e+02 -2.094367e+03 
2.427683e+02 -4.487762e+02 -2.094320e+03 
2.427290e+02 -4.488219e+02 -2.094270e+03 
2.426668e+02 -4.488709e+02 -2.094196e+03 
2.425921e+02 -4.489536e+02 -2.094050e+03 
2.424996e+02 -4.490749e+02 -2.093837e+03 
2.423778e+02 -4.492318e+02 -2.093682e+03 
2.421794e+02 -4.494114e+02 -2.093478e+03 
2.420008e+02 -4.495811e+02 -2.093137e+03 
2.418875e+02 -4.497477e+02 -2.092608e+03 
2.417824e+02 -4.499310e+02 -2.091963e+03 
2.416374e+02 -4.501232e+02 -2.091275e+03 
2.414425e+02 -4.503066e+02 -2.090608e+03 
2.411478e+02 -4.505525e+02 -2.089950e+03 
2.408467e+02 -4.508436e+02 -2.089214e+03 
2.405782e+02 -4.511722e+02 -2.088436e+03 
2.402453e+02 -4.515709e+02 -2.087687e+03 
2.399221e+02 -4.520323e+02 -2.086790e+03 
2.395927e+02 -4.525380e+02 -2.085823e+03 
2.391644e+02 -4.530710e+02 -2.084885e+03 
2.387685e+02 -4.535915e+02 -2.083902e+03 
2.382467e+02 -4.541320e+02 -2.082913e+03 
2.376919e+02 -4.546819e+02 -2.082006e+03 
2.370442e+02 -4.551930e+02 -2.080715e+03 
2.363310e+02 -4.556904e+02 -2.079358e+03 
2.355254e+02 -4.561113e+02 -2.077874e+03 
2.346947e+02 -4.565159e+02 -2.076563e+03 
2.338065e+02 -4.568801e+02 -2.075135e+03 
2.328203e+02 -4.571917e+02 -2.073307e+03 
2.318214e+02 -4.575379e+02 -2.071570e+03 
2.307338e+02 -4.578211e+02 -2.069744e+03 
2.296631e+02 -4.581010e+02 -2.068037e+03 
2.284716e+02 -4.583140e+02 -2.066216e+03 
2.272492e+02 -4.585117e+02 -2.064468e+03 
2.259091e+02 -4.586910e+02 -2.062633e+03 
2.245157e+02 -4.588060e+02 -2.060766e+03 
2.230802e+02 -4.588769e+02 -2.059057e+03 
2.216145e+02 -4.589144e+02 -2.057437e+03 
2.200999e+02 -4.588798e+02 -2.055694e+03 
2.184725e+02 -4.587624e+02 -2.053828e+03 
2.167435e+02 -4.585537e+02 -2.051972e+03 
2.150471e+02 -4.582288e+02 -2.050119e+03 
2.131872e+02 -4.578086e+02 -2.048351e+03 
2.113005e+02 -4.572491e+02 -2.046553e+03 
2.093221e+02 -4.565722e+02 -2.044712e+03 
2.073305e+02 -4.557319e+02 -2.042844e+03 
2.051749e+02 -4.547295e+02 -2.040917e+03 
2.030679e+02 -4.535895e+02 -2.038952e+03 
2.008856e+02 -4.523827e+02 -2.037122e+03 
1.986892e+02 -4.510044e+02 -2.035239e+03 
1.963999e+02 -4.494724e+02 -2.033200e+03 
1.941585e+02 -4.478297e+02 -2.031199e+03 
1.919128e+02 -4.461303e+02 -2.029334e+03 
1.896398e+02 -4.443225e+02 -2.027207e+03 
1.873642e+02 -4.424679e+02 -2.025215e+03 
1.851383e+02 -4.405302e+02 -2.023286e+03 
1.828885e+02 -4.384544e+02 -2.021313e+03 
1.806440e+02 -4.363470e+02 -2.019411e+03 
1.784824e+02 -4.341830e+02 -2.017526e+03 
1.763116e+02 -4.318856e+02 -2.015485e+03 
1.742375e+02 -4.295731e+02 -2.013688e+03 
1.722367e+02 -4.272045e+02 -2.011904e+03 
1.701905e+02 -4.247909e+02 -2.009821e+03 
1.682663e+02 -4.223229e+02 -2.008081e+03 
1.663575e+02 -4.197931e+02 -2.006412e+03 
1.644617e+02 -4.172480e+02 -2.004528e+03 
1.626566e+02 -4.145799e+02 -2.002548e+03 
1.609348e+02 -4.119552e+02 -2.001161e+03 
1.592183e+02 -4.091414e+02 -1.999358e+03 
1.576095e+02 -4.063717e+02 -1.997700e+03 
1.560932e+02 -4.034968e+02 -1.995925e+03 
1.545635e+02 -4.006111e+02 -1.994337e+03 
1.530873e+02 -3.976625e+02 -1.992725e+03 
1.517261e+02 -3.946469e+02 -1.991279e+03 
1.503921e+02 -3.916311e+02 -1.989685e+03 
1.491287e+02 -3.885713e+02 -1.988302e+03 
1.479224e+02 -3.855222e+02 -1.986958e+03 
1.467720e+02 -3.824226e+02 -1.985550e+03 
1.457563e+02 -3.793465e+02 -1.984390e+03 
1.446971e+02 -3.761737e+02 -1.983044e+03 
1.437720e+02 -3.730103e+02 -1.981861e+03 
1.428912e+02 -3.697382e+02 -1.980625e+03 
1.420706e+02 -3.664821e+02 -1.979486e+03 
1.413138e+02 -3.631407e+02 -1.978298e+03 
1.406204e+02 -3.597485e+02 -1.977161e+03 
1.400175e+02 -3.563292e+02 -1.976202e+03 
1.394618e+02 -3.528128e+02 -1.975175e+03 
1.389568e+02 -3.492947e+02 -1.974384e+03 
1.385220e+02 -3.457482e+02 -1.973463e+03 
1.381416e+02 -3.421829e+02 -1.972872e+03 
1.378365e+02 -3.385979e+02 -1.972172e+03 
1.376035e+02 -3.350121e+02 -1.971683e+03 
1.374528e+02 -3.313834e+02 -1.971308e+03 
1.373797e+02 -3.277510e+02 -1.971039e+03 
1.373747e+02 -3.241135e+02 -1.970915e+03 
1.374530e+02 -3.204401e+02 -1.970922e+03 
1.375986e+02 -3.167762e+02 -1.970967e+03 
1.378349e+02 -3.131127e+02 -1.971041e+03 
1.381542e+02 -3.095234e+02 -1.971395e+03 
1.385610e+02 -3.058816e+02 -1.971925e+03 
1.390248e+02 -3.023476e+02 -1.972345e+03 
1.396027e+02 -2.988394e+02 -1.973039e+03 
1.402595e+02 -2.953860e+02 -1.973775e+03 
1.409898e+02 -2.919848e+02 -1.974769e+03 
1.417888e+02 -2.885865e+02 -1.975694e+03 
1.426640e+02 -2.852454e+02 -1.976854e+03 
1.436155e+02 -2.819262e+02 -1.978024e+03 
1.446576e+02 -2.786188e+02 -1.979376e+03 
1.456740e+02 -2.752618e+02 -1.980674e+03 
1.468294e+02 -2.719451e+02 -1.981976e+03 
1.480679e+02 -2.686027e+02 -1.983294e+03 
1.494057e+02 -2.652375e+02 -1.984875e+03 
1.507434e+02 -2.619102e+02 -1.986088e+03 
1.522469e+02 -2.585145e+02 -1.987825e+03 
1.537896e+02 -2.552194e+02 -1.989286e+03 
1.553201e+02 -2.519104e+02 -1.990927e+03 
1.569811e+02 -2.486650e+02 -1.992733e+03 
1.587280e+02 -2.454849e+02 -1.994495e+03 
1.605379e+02 -2.422888e+02 -1.996308e+03 
1.623555e+02 -2.392583e+02 -1.998371e+03 
1.643018e+02 -2.362755e+02 -2.000348e+03 
1.662331e+02 -2.334016e+02 -2.002675e+03 
1.682899e+02 -2.306000e+02 -2.004816e+03 
1.703377e+02 -2.278704e+02 -2.007139e+03 
1.724038e+02 -2.252273e+02 -2.009513e+03 
1.745976e+02 -2.225883e+02 -2.011610e+03 
1.768582e+02 -2.200528e+02 -2.013977e+03 
1.792904e+02 -2.175304e+02 -2.016116e+03 
1.817970e+02 -2.150887e+02 -2.018255e+03 
1.843310e+02 -2.126078e+02 -2.020418e+03 
1.869198e+02 -2.101815e+02 -2.022460e+03 
1.896014e+02 -2.077706e+02 -2.024738e+03 
1.922796e+02 -2.053773e+02 -2.026821e+03 
1.950616e+02 -2.030072e+02 -2.029158e+03 
1.977746e+02 -2.006791e+02 -2.031380e+03 
2.005260e+02 -1.983430e+02 -2.033800e+03 
2.034357e+02 -1.961323e+02 -2.036286e+03 
2.062526e+02 -1.938781e+02 -2.038771e+03 
2.091731e+02 -1.917112e+02 -2.041255e+03 
2.119307e+02 -1.896127e+02 -2.043858e+03 
2.149185e+02 -1.875719e+02 -2.046646e+03 
2.178415e+02 -1.856214e+02 -2.049349e+03 
2.207957e+02 -1.837557e+02 -2.052261e+03 
2.238102e+02 -1.819028e+02 -2.055078e+03 
2.268277e+02 -1.801310e+02 -2.057940e+03 
2.298795e+02 -1.784036e+02 -2.060734e+03 
2.330998e+02 -1.766909e+02 -2.063592e+03 
2.362180e+02 -1.750206e+02 -2.066391e+03 
2.394307e+02 -1.733868e+02 -2.069181e+03 
2.426620e+02 -1.717249e+02 -2.071946e+03 
2.458518e+02 -1.700580e+02 -2.074658e+03 
2.490549e+02 -1.683732e+02 -2.077567e+03 
2.522641e+02 -1.666805e+02 -2.080393e+03 
2.554998e+02 -1.649823e+02 -2.083141e+03 
2.586352e+02 -1.633233e+02 -2.086127e+03 
2.618668e+02 -1.616737e+02 -2.089041e+03 
2.650645e+02 -1.600283e+02 -2.091979e+03 
2.682501e+02 -1.584222e+02 -2.094771e+03 
2.714139e+02 -1.568935e+02 -2.097928e+03 
2.746529e+02 -1.554579e+02 -2.101049e+03 
2.778522e+02 -1.540765e+02 -2.104023e+03 
2.809704e+02 -1.527104e+02 -2.107054e+03 
2.842220e+02 -1.514305e+02 -2.110105e+03 
2.874682e+02 -1.501880e+02 -2.113215e+03 
2.906173e+02 -1.490025e+02 -2.116163e+03 
2.938868e+02 -1.478283e+02 -2.119104e+03 
2.970224e+02 -1.466619e+02 -2.122092e+03 
3.002468e+02 -1.455217e+02 -2.124899e+03 
3.033297e+02 -1.443418e+02 -2.127862e+03 
3.064625e+02 -1.431052e+02 -2.130656e+03 
3.095196e+02 -1.418664e+02 -2.133358e+03 
3.125380e+02 -1.406084e+02 -2.136096e+03 
3.154916e+02 -1.393076e+02 -2.138924e+03 
3.184192e+02 -1.379815e+02 -2.141514e+03 
3.212993e+02 -1.366611e+02 -2.144148e+03 
3.242020e+02 -1.353463e+02 -2.146982e+03 
3.269774e+02 -1.340641e+02 -2.149555e+03 
3.296921e+02 -1.327596e+02 -2.152119e+03 
3.323804e+02 -1.315002e+02 -2.154706e+03 
3.350906e+02 -1.302496e+02 -2.157344e+03 
3.377280e+02 -1.290204e+02 -2.159787e+03 
3.403093e+02 -1.277693e+02 -2.162097e+03 
3.428565e+02 -1.265039e+02 -2.164367e+03 
3.453667e+02 -1.251324e+02 -2.166749e+03 
3.479206e+02 -1.237244e+02 -2.168868e+03 
3.502417e+02 -1.221985e+02 -2.170900e+03 
3.525606e+02 -1.206040e+02 -2.172914e+03 
3.548304e+02 -1.189439e+02 -2.174804e+03 
3.569582e+02 -1.171159e+02 -2.176594e+03 
3.590645e+02 -1.152773e+02 -2.178382e+03 
3.611654e+02 -1.133188e+02 -2.180127e+03 
3.631561e+02 -1.112479e+02 -2.181803e+03 
3.650572e+02 -1.091795e+02 -2.183259e+03 
3.669111e+02 -1.070446e+02 -2.185006e+03 
3.686854e+02 -1.048628e+02 -2.186647e+03 
3.704448e+02 -1.026369e+02 -2.188075e+03 
3.721411e+02 -1.003709e+02 -2.189604e+03 
3.737086e+02 -9.809933e+01 -2.191041e+03 
3.752853e+02 -9.576036e+01 -2.192546e+03 
3.768236e+02 -9.343465e+01 -2.193915e+03 
3.783224e+02 -9.106863e+01 -2.195167e+03 
3.797743e+02 -8.862919e+01 -2.196400e+03 
3.812298e+02 -8.619204e+01 -2.197631e+03 
3.825974e+02 -8.366984e+01 -2.198692e+03 
3.839170e+02 -8.112634e+01 -2.199655e+03 
3.852307e+02 -7.854874e+01 -2.200615e+03 
3.865282e+02 -7.588509e+01 -2.201549e+03 
3.877188e+02 -7.317411e+01 -2.202296e+03 
3.888808e+02 -7.040867e+01 -2.203051e+03 
3.900955e+02 -6.760984e+01 -2.203847e+03 
3.911795e+02 -6.473070e+01 -2.204450e+03 
3.922357e+02 -6.182804e+01 -2.205111e+03 
3.932472e+02 -5.882820e+01 -2.205797e+03 
3.941956e+02 -5.582715e+01 -2.206450e+03 
3.951132e+02 -5.273310e+01 -2.206932e+03 
3.959664e+02 -4.963599e+01 -2.207487e+03 
3.968099e+02 -4.653342e+01 -2.208094e+03 
3.975489e+02 -4.339958e+01 -2.208597e+03 
3.983018e+02 -4.029629e+01 -2.209206e+03 
3.990270e+02 -3.719199e+01 -2.209821e+03 
3.996570e+02 -3.412298e+01 -2.210197e+03 
4.003095e+02 -3.106926e+01 -2.210637e+03 
4.009906e+02 -2.807810e+01 -2.211192e+03 
4.015801e+02 -2.507940e+01 -2.211533e+03 
4.020818e+02 -2.211121e+01 -2.211837e+03 
4.025721e+02 -1.913316e+01 -2.212115e+03 
4.030415e+02 -1.615928e+01 -2.212316e+03 
4.034481e+02 -1.317579e+01 -2.212568e+03 
4.038640e+02 -1.016328e+01 -2.212785e+03 
4.041638e+02 -7.149272e+00 -2.212778e+03 
4.045035e+02 -4.106987e+00 -2.212997e+03 
4.047463e+02 -1.048238e+00 -2.213112e+03 
4.049257e+02 2.016906e+00 -2.213135e+03 
4.050691e+02 5.063258e+00 -2.213093e+03 
4.051714e+02 8.135359e+00 -2.213091e+03 
4.051874e+02 1.119336e+01 -2.213064e+03 
4.051620e+02 1.422340e+01 -2.213062e+03 
4.051135e+02 1.726317e+01 -2.213088e+03 
4.049959e+02 2.029920e+01 -2.212955e+03 
4.048415e+02 2.331681e+01 -2.212707e+03 
4.046445e+02 2.637166e+01 -2.212351e+03 
4.044445e+02 2.942792e+01 -2.212080e+03 
4.041634e+02 3.250134e+01 -2.211678e+03 
4.038441e+02 3.552980e+01 -2.211127e+03 
4.035724e+02 3.860537e+01 -2.210783e+03 
4.031866e+02 4.160457e+01 -2.210125e+03 
4.027559e+02 4.458208e+01 -2.209487e+03 
4.023142e+02 4.753360e+01 -2.208858e+03 
4.018072e+02 5.045209e+01 -2.208105e+03 
4.012368e+02 5.334645e+01 -2.207388e+03 
4.006628e+02 5.619327e+01 -2.206706e+03 
3.999806e+02 5.901006e+01 -2.205906e+03 
3.992292e+02 6.183628e+01 -2.205220e+03 
3.984020e+02 6.455516e+01 -2.204268e+03 
3.975684e+02 6.727663e+01 -2.203522e+03 
3.966847e+02 6.993581e+01 -2.202689e+03 
3.957503e+02 7.257965e+01 -2.201750e+03 
3.947636e+02 7.515582e+01 -2.200746e+03 
3.937747e+02 7.773122e+01 -2.199868e+03 
3.927322e+02 8.022922e+01 -2.198580e+03 
3.916760e+02 8.271500e+01 -2.197432e+03 
3.905648e+02 8.517216e+01 -2.196177e+03 
3.894766e+02 8.759168e+01 -2.194937e+03 
3.883065e+02 8.997826e+01 -2.193467e+03 
3.870960e+02 9.232489e+01 -2.192097e+03 
3.859014e+02 9.462475e+01 -2.190594e+03 
3.846693e+02 9.685186e+01 -2.188953e+03 
3.834566e+02 9.905258e+01 -2.187475e+03 
3.821150e+02 1.011308e+02 -2.185724e+03 
3.808262e+02 1.031672e+02 -2.184136e+03 
3.794708e+02 1.050963e+02 -2.182338e+03 
3.780725e+02 1.069779e+02 -2.180750e+03 
3.765714e+02 1.087048e+02 -2.178971e+03 
3.750403e+02 1.103865e+02 -2.177172e+03 
3.734543e+02 1.120004e+02 -2.175571e+03 
3.718680e+02 1.135690e+02 -2.173834e+03 
3.702802e+02 1.150991e+02 -2.172200e+03 
3.686842e+02 1.166367e+02 -2.170524e+03 
3.670061e+02 1.181604e+02 -2.168741e+03 
3.652816e+02 1.196659e+02 -2.166929e+03 
3.636440e+02 1.212220e+02 -2.165153e+03 
3.619724e+02 1.227589e+02 -2.163313e+03 
3.602969e+02 1.243309e+02 -2.161621e+03 
3.585999e+02 1.258810e+02 -2.159836e+03 
3.568112e+02 1.274239e+02 -2.158056e+03 
3.550579e+02 1.289560e+02 -2.156306e+03 
3.533071e+02 1.304326e+02 -2.154464e+03 
3.515810e+02 1.318993e+02 -2.152932e+03 
3.497514e+02 1.333188e+02 -2.151159e+03 
3.478830e+02 1.347008e+02 -2.149459e+03 
3.460942e+02 1.360585e+02 -2.147832e+03 
3.442722e+02 1.373794e+02 -2.146179e+03 
3.423899e+02 1.386791e+02 -2.144590e+03 
3.405424e+02 1.399589e+02 -2.142984e+03 
3.386837e+02 1.412785e+02 -2.141442e+03 
3.368463e+02 1.425441e+02 -2.139904e+03 
3.349884e+02 1.438487e+02 -2.138188e+03 
3.331848e+02 1.451682e+02 -2.136771e+03 
3.312977e+02 1.464760e+02 -2.135198e+03 
3.294941e+02 1.477904e+02 -2.133912e+03 
3.276373e+02 1.490936e+02 -2.132491e+03 
3.258219e+02 1.503266e+02 -2.131098e+03 
3.239541e+02 1.515262e+02 -2.129842e+03 
3.220934e+02 1.527343e+02 -2.128550e+03 
3.202836e+02 1.538719e+02 -2.127428e+03 
3.184417e+02 1.549298e+02 -2.126249e+03 
3.166166e+02 1.559380e+02 -2.125045e+03 
3.148145e+02 1.569182e+02 -2.123983e+03 
3.130240e+02 1.578265e+02 -2.122848e+03 
3.113109e+02 1.587090e+02 -2.121762e+03 
3.095382e+02 1.595463e+02 -2.120545e+03 
3.078992e+02 1.603730e+02 -2.119370e+03 
3.062679e+02 1.611616e+02 -2.118260e+03 
3.046218e+02 1.619030e+02 -2.117144e+03 
3.029670e+02 1.626252e+02 -2.116015e+03 
3.013947e+02 1.632869e+02 -2.115042e+03 
2.998376e+02 1.639034e+02 -2.113888e+03 
2.983187e+02 1.645067e+02 -2.112843e+03 
2.967848e+02 1.650927e+02 -2.111891e+03 
2.952388e+02 1.656466e+02 -2.110825e+03 
2.938416e+02 1.662015e+02 -2.109802e+03 
2.924375e+02 1.667353e+02 -2.108935e+03 
2.910112e+02 1.672231e+02 -2.107989e+03 
2.896136e+02 1.677332e+02 -2.107223e+03 
2.882355e+02 1.681808e+02 -2.106461e+03 
2.868891e+02 1.686403e+02 -2.105859e+03 
2.855159e+02 1.690595e+02 -2.105336e+03 
2.841973e+02 1.694501e+02 -2.104883e+03 
2.828539e+02 1.697675e+02 -2.104474e+03 
2.815166e+02 1.700769e+02 -2.104174e+03 
2.802185e+02 1.703373e+02 -2.103792e+03 
2.789885e+02 1.705948e+02 -2.103513e+03 
2.777678e+02 1.708493e+02 -2.103210e+03 
2.765864e+02 1.710714e+02 -2.102906e+03 
2.754971e+02 1.712919e+02 -2.102565e+03 
2.744615e+02 1.715071e+02 -2.102322e+03 
2.734077e+02 1.717022e+02 -2.102008e+03 
2.724338e+02 1.718735e+02 -2.101673e+03 
2.715009e+02 1.720307e+02 -2.101388e+03 
2.705973e+02 1.721711e+02 -2.101088e+03 
2.697263e+02 1.722922e+02 -2.100856e+03 
2.688813e+02 1.723921e+02 -2.100673e+03 
2.680593e+02 1.724879e+02 -2.100472e+03 
2.672906e+02 1.725728e+02 -2.100261e+03 
2.665443e+02 1.726477e+02 -2.100101e+03 
2.658235e+02 1.727192e+02 -2.099986e+03 
2.651307e+02 1.727824e+02 -2.099870e+03 
2.644968e+02 1.728474e+02 -2.099749e+03 
2.638970e+02 1.729074e+02 -2.099634e+03 
2.633295e+02 1.729523e+02 -2.099526e+03 
2.628162e+02 1.729775e+02 -2.099407e+03 
2.623366e+02 1.729829e+02 -2.099301e+03 
2.618823e+02 1.729726e+02 -2.099206e+03 
2.614220e+02 1.729479e+02 -2.099127e+03 
2.609786e+02 1.729037e+02 -2.099049e+03 
2.605801e+02 1.728474e+02 -2.099016e+03 
2.601823e+02 1.727702e+02 -2.099007e+03 
2.598026e+02 1.726685e+02 -2.099028e+03 
2.594184e+02 1.725411e+02 -2.099051e+03 
2.590474e+02 1.724026e+02 -2.099075e+03 
2.587100e+02 1.722678e+02 -2.099136e+03 
2.583848e+02 1.721465e+02 -2.099234e+03 
2.580984e+02 1.720217e+02 -2.099354e+03 
2.578196e+02 1.718990e+02 -2.099477e+03 
2.575700e+02 1.717895e+02 -2.099577e+03 
2.573285e+02 1.716898e+02 -2.099717e+03 
2.571006e+02 1.716082e+02 -2.099849e+03 
2.570685e+02 1.715521e+02 -2.099895e+03 
2.570406e+02 1.715275e+02 -2.099929e+03 
2.570374e+02 1.715174e+02 -2.099946e+03 
2.570458e+02 1.715165e+02 -2.099996e+03 
2.570539e+02 1.715251e+02 -2.100010e+03 
2.570695e+02 1.715495e+02 -2.100046e+03 
2.570923e+02 1.715689e+02 -2.100091e+03 
2.571240e+02 1.715776e+02 -2.100137e+03 
2.571490e+02 1.715924e+02 -2.100174e+03 
2.571854e+02 1.716066e+02 -2.100217e+03 
2.572335e+02 1.716188e+02 -2.100272e+03 
2.572779e+02 1.716278e+02 -2.100328e+03 
2.573235e+02 1.716351e+02 -2.100363e+03 
2.573733e+02 1.716306e+02 -2.100442e+03 
2.574350e+02 1.716170e+02 -2.100501e+03 
2.574948e+02 1.715964e+02 -2.100565e+03 
2.575540e+02 1.715755e+02 -2.100639e+03 
2.576090e+02 1.715383e+02 -2.100708e+03 
2.576697e+02 1.714895e+02 -2.100764e+03 
2.577320e+02 1.714376e+02 -2.100856e+03 
2.577951e+02 1.713742e+02 -2.100905e+03 
2.578617e+02 1.712766e+02 -2.100996e+03 
2.579256e+02 1.711748e+02 -2.101094e+03 
2.579895e+02 1.710653e+02 -2.101161e+03 
2.580616e+02 1.709460e+02 -2.101225e+03 
2.581328e+02 1.708216e+02 -2.101266e+03 
2.582196e+02 1.707136e+02 -2.101329e+03 
2.583106e+02 1.706006e+02 -2.101427e+03 
2.583957e+02 1.705040e+02 -2.101552e+03 
2.584839e+02 1.704182e+02 -2.101648e+03 
2.585745e+02 1.703325e+02 -2.101728e+03 
2.586736e+02 1.702642e+02 -2.101804e+03 
2.587855e+02 1.702051e+02 -2.101904e+03 
2.589066e+02 1.701477e+02 -2.102015e+03 
2.590259e+02 1.700956e+02 -2.102150e+03 
2.591359e+02 1.700405e+02 -2.102271e+03 
2.592572e+02 1.699954e+02 -2.102393e+03 
2.593624e+02 1.699494e+02 -2.102504e+03 
2.594807e+02 1.699257e+02 -2.102620e+03 
2.595832e+02 1.699105e+02 -2.102698e+03 
2.596633e+02 1.699184e+02 -2.102770e+03 
2.597256e+02 1.699386e+02 -2.102840e+03 
2.597698e+02 1.699530e+02 -2.102876e+03 
2.597956e+02 1.699703e+02 -2.102911e+03 
2.598087e+02 1.699776e+02 -2.102925e+03 
2.598196e+02 1.699933e+02 -2.102957e+03 
2.598272e+02 1.700223e+02 -2.102983e+03 
2.598510e+02 1.700523e+02 -2.103017e+03 
2.598735e+02 1.700814e+02 -2.103046e+03 
2.598944e+02 1.701111e+02 -2.103076e+03 
2.599076e+02 1.701207e+02 -2.103074e+03 
2.599151e+02 1.701181e+02 -2.103064e+03 
2.599182e+02 1.701169e+02 -2.103062e+03 
2.599206e+02 1.701193e+02 -2.103073e+03 
2.599158e+02 1.701209e+02 -2.103070e+03 
2.599177e+02 1.701205e+02 -2.103076e+03 
2.599151e+02 1.701172e+02 -2.103064e+03 
2.599136e+02 1.701174e+02 -2.103074e+03 
2.599065e+02 1.701142e+02 -2.103065e+03 
2.598978e+02 1.701167e+02 -2.103075e+03 
2.598938e+02 1.701196e+02 -2.103069e+03 
2.598958e+02 1.701197e+02 -2.103076e+03 
2.599001e+02 1.701190e+02 -2.103079e+03 
2.598997e+02 1.701193e+02 -2.103079e+03 
2.599060e+02 1.701189e+02 -2.103076e+03 
2.599126e+02 1.701187e+02 -2.103083e+03 
2.599149e+02 1.701161e+02 -2.103076e+03 
2.599212e+02 1.701152e+02 -2.103091e+03 
2.599411e+02 1.701140e+02 -2.103093e+03 
2.599464e+02 1.701113e+02 -2.103107e+03 
2.599630e+02 1.701058e+02 -2.103130e+03 
2.599795e+02 1.701017e+02 -2.103145e+03 
2.599932e+02 1.700920e+02 -2.103157e+03 
2.600120e+02 1.700794e+02 -2.103175e+03 
2.600392e+02 1.700660e+02 -2.103198e+03 
2.600486e+02 1.700614e+02 -2.103234e+03 
2.600619e+02 1.700560e+02 -2.103239e+03 
2.600738e+02 1.700496e+02 -2.103233e+03 
2.600783e+02 1.700460e+02 -2.103243e+03 
2.600902e+02 1.700431e+02 -2.103247e+03 
2.600983e+02 1.700425e+02 -2.103257e+03 
2.600951e+02 1.700451e+02 -2.103255e+03 
2.600928e+02 1.700461e+02 -2.103244e+03 
2.600913e+02 1.700442e+02 -2.103244e+03 
2.600858e+02 1.700450e+02 -2.103253e+03 
2.600865e+02 1.700441e+02 -2.103259e+03 
2.600815e+02 1.700430e+02 -2.103256e+03 
2.600793e+02 1.700403e+02 -2.103262e+03 
2.600710e+02 1.700443e+02 -2.103260e+03 
2.600826e+02 1.700440e+02 -2.103270e+03 
2.600801e+02 1.700368e+02 -2.103261e+03 
2.600824e+02 1.700404e+02 -2.103270e+03 
2.600920e+02 1.700376e+02 -2.103275e+03 
2.600926e+02 1.700303e+02 -2.103264e+03 
2.600974e+02 1.700306e+02 -2.103275e+03 
2.601042e+02 1.700279e+02 -2.103267e+03 
2.601052e+02 1.700240e+02 -2.103284e+03 
2.601044e+02 1.700241e+02 -2.103279e+03 
2.600979e+02 1.700237e+02 -2.103282e+03 
2.600927e+02 1.700223e+02 -2.103284e+03 
2.600866e+02 1.700242e+02 -2.103285e+03 
2.600886e+02 1.700236e+02 -2.103298e+03 
2.600898e+02 1.700199e+02 -2.103298e+03 
2.600859e+02 1.700248e+02 -2.103303e+03 
2.600874e+02 1.700261e+02 -2.103302e+03 
2.600913e+02 1.700248e+02 -2.103301e+03 
2.600910e+02 1.700279e+02 -2.103311e+03 
2.601000e+02 1.700233e+02 -2.103311e+03 
2.601046e+02 1.700178e+02 -2.103312e+03 
2.601097e+02 1.700134e+02 -2.103292e+03 
2.600982e+02 1.700124e+02 -2.103309e+03 
2.600986e+02 1.700112e+02 -2.103314e+03 
2.600910e+02 1.700088e+02 -2.103315e+03 
2.600854e+02 1.700097e+02 -2.103313e+03 
2.600819e+02 1.700070e+02 -2.103306e+03 
2.600885e+02 1.700060e+02 -2.103310e+03 
2.600903e+02 1.700061e+02 -2.103325e+03 
2.600938e+02 1.700055e+02 -2.103312e+03 
2.600981e+02 1.700103e+02 -2.103317e+03 
2.601072e+02 1.700115e+02 -2.103313e+03 
2.601080e+02 1.700128e+02 -2.103319e+03 
2.601115e+02 1.700134e+02 -2.103316e+03 
2.601171e+02 1.700116e+02 -2.103322e+03 
