2.407938e+02 -4.487160e+02 -2.092678e+03 
2.407893e+02 -4.487113e+02 -2.092674e+03 
2.407834e+02 -4.487088e+02 -2.092674e+03 
2.407839e+02 -4.487040e+02 -2.092659e+03 
2.407803e+02 -4.486991e+02 -2.092643e+03 
2.407731e+02 -4.487015e+02 -2.092651e+03 
2.407660e+02 -4.486975e+02 -2.092653e+03 
2.407561e+02 -4.486959e+02 -2.092644e+03 
2.407528e+02 -4.486875e+02 -2.092655e+03 
2.407553e+02 -4.486869e+02 -2.092645e+03 
2.407738e+02 -4.486902e+02 -2.092660e+03 
2.407912e+02 -4.486856e+02 -2.092645e+03 
2.408078e+02 -4.486833e+02 -2.092655e+03 
2.408204e+02 -4.486752e+02 -2.092656e+03 
2.408417e+02 -4.486752e+02 -2.092663e+03 
2.408485e+02 -4.486712e+02 -2.092662e+03 
2.408658e+02 -4.486691e+02 -2.092659e+03 
2.408765e+02 -4.486706e+02 -2.092678e+03 
2.408896e+02 -4.486739e+02 -2.092688e+03 
2.408958e+02 -4.486729e+02 -2.092701e+03 
2.409113e+02 -4.486750e+02 -2.092741e+03 
2.409128e+02 -4.486791e+02 -2.092751e+03 
2.409221e+02 -4.486840e+02 -2.092733e+03 
2.409292e+02 -4.486783e+02 -2.092733e+03 
2.409392e+02 -4.486803e+02 -2.092744e+03 
2.409450e+02 -4.486824e+02 -2.092754e+03 
2.409630e+02 -4.486786e+02 -2.092786e+03 
2.409722e+02 -4.486826e+02 -2.092764e+03 
2.409766e+02 -4.486761e+02 -2.092754e+03 
2.409809e+02 -4.486743e+02 -2.092755e+03 
2.409850e+02 -4.486808e+02 -2.092768e+03 
2.409866e+02 -4.486760e+02 -2.092759e+03 
2.409938e+02 -4.486828e+02 -2.092764e+03 
2.410117e+02 -4.486966e+02 -2.092816e+03 
2.410282e+02 -4.487116e+02 -2.092828e+03 
2.410531e+02 -4.487441e+02 -2.092885e+03 
2.410892e+02 -4.487761e+02 -2.092915e+03 
2.411123e+02 -4.487972e+02 -2.092954e+03 
2.411446e+02 -4.488240e+02 -2.093002e+03 
2.411738e+02 -4.488445e+02 -2.093012e+03 
2.411976e+02 -4.488702e+02 -2.093044e+03 
2.412166e+02 -4.488858e+02 -2.093050e+03 
2.412381e+02 -4.488949e+02 -2.093075e+03 
2.412414e+02 -4.488981e+02 -2.093076e+03 
2.412416e+02 -4.489028e+02 -2.093069e+03 
2.412415e+02 -4.489037e+02 -2.093077e+03 
2.412290e+02 -4.489030e+02 -2.093081e+03 
2.412278e+02 -4.489074e+02 -2.093047e+03 
2.412257e+02 -4.489088e+02 -2.093073e+03 
2.412133e+02 -4.489034e+02 -2.093092e+03 
2.412145e+02 -4.489143e+02 -2.093085e+03 
2.412052e+02 -4.489109e+02 -2.093080e+03 
2.412044e+02 -4.489178e+02 -2.093054e+03 
2.412030e+02 -4.489203e+02 -2.093070e+03 
2.412027e+02 -4.489212e+02 -2.093050e+03 
2.412030e+02 -4.489227e+02 -2.093037e+03 
2.411989e+02 -4.489315e+02 -2.093035e+03 
2.412090e+02 -4.489367e+02 -2.093066e+03 
2.412010e+02 -4.489354e+02 -2.093051e+03 
2.411954e+02 -4.489340e+02 -2.093035e+03 
2.411987e+02 -4.489388e+02 -2.093052e+03 
2.411941e+02 -4.489394e+02 -2.093045e+03 
2.411917e+02 -4.489466e+02 -2.093054e+03 
2.411953e+02 -4.489418e+02 -2.093031e+03 
2.411957e+02 -4.489465e+02 -2.093060e+03 
2.411968e+02 -4.489473e+02 -2.093075e+03 
2.411941e+02 -4.489442e+02 -2.093049e+03 
2.411997e+02 -4.489431e+02 -2.093030e+03 
2.412058e+02 -4.489477e+02 -2.093049e+03 
2.412201e+02 -4.489492e+02 -2.093064e+03 
2.412182e+02 -4.489456e+02 -2.093056e+03 
2.412205e+02 -4.489464e+02 -2.093045e+03 
2.412202e+02 -4.489463e+02 -2.093061e+03 
2.412159e+02 -4.489388e+02 -2.093044e+03 
2.412114e+02 -4.489406e+02 -2.093062e+03 
2.412125e+02 -4.489462e+02 -2.093068e+03 
2.412012e+02 -4.489362e+02 -2.093046e+03 
2.411992e+02 -4.489419e+02 -2.093044e+03 
2.411944e+02 -4.489406e+02 -2.093009e+03 
2.411954e+02 -4.489466e+02 -2.093042e+03 
2.411946e+02 -4.489432e+02 -2.093070e+03 
2.411924e+02 -4.489414e+02 -2.093053e+03 
2.411964e+02 -4.489408e+02 -2.093056e+03 
2.412068e+02 -4.489430e+02 -2.093073e+03 
2.412006e+02 -4.489403e+02 -2.093027e+03 
2.412061e+02 -4.489441e+02 -2.093042e+03 
2.412104e+02 -4.489464e+02 -2.093065e+03 
2.412066e+02 -4.489448e+02 -2.093054e+03 
2.411991e+02 -4.489458e+02 -2.093035e+03 
2.411922e+02 -4.489482e+02 -2.093052e+03 
2.411872e+02 -4.489462e+02 -2.093039e+03 
2.411856e+02 -4.489473e+02 -2.093045e+03 
2.411834e+02 -4.489464e+02 -2.093032e+03 
2.411845e+02 -4.489480e+02 -2.093046e+03 
2.411806e+02 -4.489491e+02 -2.093040e+03 
2.411760e+02 -4.489421e+02 -2.093037e+03 
2.411790e+02 -4.489500e+02 -2.093038e+03 
2.411839e+02 -4.489500e+02 -2.093040e+03 
2.411789e+02 -4.489399e+02 -2.093035e+03 
2.411791e+02 -4.489489e+02 -2.093040e+03 
2.411742e+02 -4.489451e+02 -2.093027e+03 
2.411727e+02 -4.489435e+02 -2.093016e+03 
2.411650e+02 -4.489467e+02 -2.093009e+03 
2.411628e+02 -4.489442e+02 -2.093006e+03 
2.411618e+02 -4.489453e+02 -2.093018e+03 
2.411588e+02 -4.489454e+02 -2.093028e+03 
2.411540e+02 -4.489484e+02 -2.093042e+03 
2.411580e+02 -4.489445e+02 -2.092986e+03 
2.411524e+02 -4.489413e+02 -2.093016e+03 
2.411552e+02 -4.489448e+02 -2.092998e+03 
2.411554e+02 -4.489443e+02 -2.092993e+03 
2.411553e+02 -4.489451e+02 -2.093000e+03 
2.411595e+02 -4.489477e+02 -2.093010e+03 
2.411566e+02 -4.489479e+02 -2.092983e+03 
2.411265e+02 -4.489586e+02 -2.092978e+03 
2.411197e+02 -4.489638e+02 -2.092954e+03 
2.410962e+02 -4.489616e+02 -2.092932e+03 
2.410865e+02 -4.489593e+02 -2.092891e+03 
2.410769e+02 -4.489616e+02 -2.092888e+03 
2.410828e+02 -4.489589e+02 -2.092898e+03 
2.410826e+02 -4.489309e+02 -2.092923e+03 
2.410975e+02 -4.489012e+02 -2.092911e+03 
2.411226e+02 -4.488650e+02 -2.092909e+03 
2.411660e+02 -4.488341e+02 -2.092955e+03 
2.412208e+02 -4.487974e+02 -2.092940e+03 
2.413112e+02 -4.487888e+02 -2.092968e+03 
2.414845e+02 -4.488033e+02 -2.093055e+03 
2.417388e+02 -4.488315e+02 -2.093128e+03 
2.420212e+02 -4.488382e+02 -2.093102e+03 
2.424409e+02 -4.488338e+02 -2.093051e+03 
2.429539e+02 -4.488273e+02 -2.093020e+03 
2.435301e+02 -4.488447e+02 -2.092974e+03 
2.441718e+02 -4.488682e+02 -2.092924e+03 
2.449464e+02 -4.488987e+02 -2.092887e+03 
2.458671e+02 -4.489130e+02 -2.092797e+03 
2.469914e+02 -4.488895e+02 -2.092603e+03 
2.482202e+02 -4.488354e+02 -2.092364e+03 
2.495157e+02 -4.487263e+02 -2.092041e+03 
2.508793e+02 -4.485787e+02 -2.091763e+03 
2.523786e+02 -4.483794e+02 -2.091476e+03 
2.538628e+02 -4.480750e+02 -2.091185e+03 
2.554887e+02 -4.476950e+02 -2.090980e+03 
2.571516e+02 -4.472111e+02 -2.090743e+03 
2.588721e+02 -4.466017e+02 -2.090475e+03 
2.606722e+02 -4.458901e+02 -2.090362e+03 
2.624133e+02 -4.450386e+02 -2.090274e+03 
2.642209e+02 -4.441314e+02 -2.090304e+03 
2.660418e+02 -4.430871e+02 -2.090396e+03 
2.678725e+02 -4.419942e+02 -2.090993e+03 
2.697401e+02 -4.406875e+02 -2.091510e+03 
2.714374e+02 -4.393432e+02 -2.092304e+03 
2.731962e+02 -4.379347e+02 -2.093300e+03 
2.748591e+02 -4.364758e+02 -2.094663e+03 
2.765404e+02 -4.349889e+02 -2.096263e+03 
2.782984e+02 -4.334141e+02 -2.097894e+03 
2.799212e+02 -4.316521e+02 -2.099583e+03 
2.817008e+02 -4.298258e+02 -2.101405e+03 
2.834552e+02 -4.278874e+02 -2.103180e+03 
2.851379e+02 -4.258328e+02 -2.105048e+03 
2.870044e+02 -4.236425e+02 -2.106879e+03 
2.887747e+02 -4.213081e+02 -2.108498e+03 
2.906533e+02 -4.188713e+02 -2.110336e+03 
2.926117e+02 -4.163021e+02 -2.112025e+03 
2.944200e+02 -4.135318e+02 -2.113581e+03 
2.964219e+02 -4.107361e+02 -2.115409e+03 
2.983108e+02 -4.077610e+02 -2.116893e+03 
3.001403e+02 -4.047077e+02 -2.118789e+03 
3.021082e+02 -4.015115e+02 -2.120312e+03 
3.039587e+02 -3.982767e+02 -2.122187e+03 
3.058138e+02 -3.949454e+02 -2.123995e+03 
3.076147e+02 -3.914743e+02 -2.125864e+03 
3.095196e+02 -3.878683e+02 -2.127806e+03 
3.112749e+02 -3.841400e+02 -2.129548e+03 
3.131111e+02 -3.804733e+02 -2.131825e+03 
3.147689e+02 -3.766743e+02 -2.133728e+03 
3.166660e+02 -3.727903e+02 -2.135888e+03 
3.184467e+02 -3.688478e+02 -2.137845e+03 
3.203391e+02 -3.648267e+02 -2.139762e+03 
3.221978e+02 -3.608056e+02 -2.141751e+03 
3.241656e+02 -3.566695e+02 -2.143436e+03 
3.261853e+02 -3.524137e+02 -2.145264e+03 
3.280880e+02 -3.480772e+02 -2.147028e+03 
3.300922e+02 -3.436465e+02 -2.148839e+03 
3.320810e+02 -3.392066e+02 -2.150504e+03 
3.340264e+02 -3.346478e+02 -2.152226e+03 
3.359672e+02 -3.299070e+02 -2.153845e+03 
3.380081e+02 -3.251376e+02 -2.155591e+03 
3.398142e+02 -3.202634e+02 -2.157102e+03 
3.417297e+02 -3.153134e+02 -2.159054e+03 
3.434270e+02 -3.102640e+02 -2.160630e+03 
3.453757e+02 -3.052127e+02 -2.162562e+03 
3.470884e+02 -3.000468e+02 -2.164293e+03 
3.490631e+02 -2.948641e+02 -2.166041e+03 
3.508904e+02 -2.896238e+02 -2.167910e+03 
3.527721e+02 -2.843058e+02 -2.169432e+03 
3.546577e+02 -2.789756e+02 -2.171141e+03 
3.565657e+02 -2.735818e+02 -2.172833e+03 
3.584839e+02 -2.681904e+02 -2.174598e+03 
3.603555e+02 -2.628122e+02 -2.176370e+03 
3.622929e+02 -2.573871e+02 -2.177870e+03 
3.642619e+02 -2.519321e+02 -2.179564e+03 
3.662381e+02 -2.464494e+02 -2.181217e+03 
3.681848e+02 -2.409500e+02 -2.182759e+03 
3.701765e+02 -2.353299e+02 -2.184339e+03 
3.723559e+02 -2.296791e+02 -2.186003e+03 
3.743223e+02 -2.239395e+02 -2.187609e+03 
3.760451e+02 -2.182887e+02 -2.189684e+03 
3.776058e+02 -2.125376e+02 -2.191822e+03 
3.791638e+02 -2.066136e+02 -2.193919e+03 
3.807237e+02 -2.006351e+02 -2.196098e+03 
3.824934e+02 -1.946133e+02 -2.198274e+03 
3.841990e+02 -1.885838e+02 -2.200101e+03 
3.859078e+02 -1.825818e+02 -2.202048e+03 
3.876758e+02 -1.765930e+02 -2.204046e+03 
3.893163e+02 -1.706357e+02 -2.206148e+03 
3.910236e+02 -1.646776e+02 -2.208309e+03 
3.927464e+02 -1.587347e+02 -2.210431e+03 
3.944288e+02 -1.527966e+02 -2.212445e+03 
3.961608e+02 -1.468370e+02 -2.214519e+03 
3.978789e+02 -1.408472e+02 -2.216480e+03 
3.995882e+02 -1.348913e+02 -2.218442e+03 
4.013023e+02 -1.288838e+02 -2.220321e+03 
4.030699e+02 -1.229032e+02 -2.222219e+03 
4.048062e+02 -1.169275e+02 -2.223975e+03 
4.064987e+02 -1.109945e+02 -2.225762e+03 
4.082605e+02 -1.050855e+02 -2.227529e+03 
4.099747e+02 -9.926792e+01 -2.229110e+03 
4.117215e+02 -9.353426e+01 -2.230642e+03 
4.134659e+02 -8.789481e+01 -2.232389e+03 
4.151507e+02 -8.234160e+01 -2.233898e+03 
4.168312e+02 -7.692427e+01 -2.235439e+03 
4.185161e+02 -7.156469e+01 -2.236813e+03 
4.201948e+02 -6.627325e+01 -2.238287e+03 
4.218152e+02 -6.106295e+01 -2.239726e+03 
4.233968e+02 -5.585008e+01 -2.241017e+03 
4.249472e+02 -5.063338e+01 -2.242217e+03 
4.265143e+02 -4.539175e+01 -2.243611e+03 
4.279975e+02 -4.012308e+01 -2.244795e+03 
4.294291e+02 -3.482304e+01 -2.245930e+03 
4.308187e+02 -2.952163e+01 -2.247236e+03 
4.322068e+02 -2.420643e+01 -2.248420e+03 
4.335370e+02 -1.888026e+01 -2.249653e+03 
4.347568e+02 -1.356243e+01 -2.250903e+03 
4.359474e+02 -8.265312e+00 -2.252042e+03 
4.371503e+02 -2.980280e+00 -2.253326e+03 
4.382892e+02 2.261535e+00 -2.254498e+03 
4.393647e+02 7.434022e+00 -2.255658e+03 
4.404231e+02 1.258495e+01 -2.256815e+03 
4.414486e+02 1.766643e+01 -2.257771e+03 
4.425437e+02 2.272551e+01 -2.258867e+03 
4.435617e+02 2.775492e+01 -2.259768e+03 
4.445477e+02 3.275779e+01 -2.260525e+03 
4.455036e+02 3.775097e+01 -2.261392e+03 
4.464727e+02 4.274651e+01 -2.262131e+03 
4.474134e+02 4.772997e+01 -2.262729e+03 
4.483361e+02 5.268287e+01 -2.263503e+03 
4.491889e+02 5.763136e+01 -2.264190e+03 
4.499992e+02 6.257803e+01 -2.264769e+03 
4.508147e+02 6.749363e+01 -2.265455e+03 
4.515829e+02 7.238042e+01 -2.266022e+03 
4.523682e+02 7.723119e+01 -2.266722e+03 
4.531219e+02 8.206747e+01 -2.267329e+03 
4.538435e+02 8.685669e+01 -2.267991e+03 
4.544825e+02 9.165952e+01 -2.268550e+03 
4.551206e+02 9.646199e+01 -2.269174e+03 
4.557808e+02 1.012629e+02 -2.269827e+03 
4.563683e+02 1.060796e+02 -2.270255e+03 
4.570067e+02 1.109308e+02 -2.270791e+03 
4.576284e+02 1.157588e+02 -2.271097e+03 
4.582859e+02 1.205877e+02 -2.271419e+03 
4.589445e+02 1.254041e+02 -2.271679e+03 
4.595947e+02 1.301681e+02 -2.271858e+03 
4.602433e+02 1.348563e+02 -2.272071e+03 
4.608498e+02 1.394680e+02 -2.272116e+03 
4.613991e+02 1.439995e+02 -2.272151e+03 
4.619217e+02 1.484282e+02 -2.272161e+03 
4.623994e+02 1.527403e+02 -2.272077e+03 
4.628089e+02 1.569798e+02 -2.272051e+03 
4.632198e+02 1.611699e+02 -2.271984e+03 
4.635539e+02 1.652504e+02 -2.271918e+03 
4.638527e+02 1.693115e+02 -2.271793e+03 
4.641520e+02 1.733252e+02 -2.271817e+03 
4.643763e+02 1.773277e+02 -2.271664e+03 
4.646013e+02 1.813178e+02 -2.271640e+03 
4.647846e+02 1.852525e+02 -2.271482e+03 
4.649560e+02 1.892052e+02 -2.271346e+03 
4.651104e+02 1.931469e+02 -2.271223e+03 
4.652349e+02 1.970582e+02 -2.271013e+03 
4.653825e+02 2.010022e+02 -2.270872e+03 
4.655074e+02 2.048996e+02 -2.270597e+03 
4.656656e+02 2.088199e+02 -2.270385e+03 
4.657890e+02 2.126897e+02 -2.269922e+03 
4.659077e+02 2.165905e+02 -2.269456e+03 
4.660373e+02 2.204457e+02 -2.268985e+03 
4.661750e+02 2.242930e+02 -2.268477e+03 
4.662620e+02 2.280710e+02 -2.267756e+03 
4.663506e+02 2.318280e+02 -2.267183e+03 
4.663976e+02 2.355173e+02 -2.266534e+03 
4.663824e+02 2.391568e+02 -2.265841e+03 
4.663286e+02 2.427341e+02 -2.265119e+03 
4.662093e+02 2.462564e+02 -2.264300e+03 
4.660654e+02 2.497413e+02 -2.263570e+03 
4.658814e+02 2.531684e+02 -2.262753e+03 
4.656716e+02 2.565748e+02 -2.261895e+03 
4.654171e+02 2.599413e+02 -2.260923e+03 
4.651807e+02 2.633180e+02 -2.260076e+03 
4.649390e+02 2.666531e+02 -2.259213e+03 
4.646722e+02 2.699913e+02 -2.258213e+03 
4.644066e+02 2.733428e+02 -2.257262e+03 
4.641004e+02 2.766705e+02 -2.256196e+03 
4.637574e+02 2.799440e+02 -2.255028e+03 
4.634567e+02 2.832246e+02 -2.254006e+03 
4.630833e+02 2.864178e+02 -2.252779e+03 
4.626720e+02 2.895857e+02 -2.251589e+03 
4.622095e+02 2.926742e+02 -2.250245e+03 
4.617632e+02 2.957556e+02 -2.249160e+03 
4.612238e+02 2.987541e+02 -2.247739e+03 
4.606790e+02 3.016950e+02 -2.246355e+03 
4.600941e+02 3.046017e+02 -2.244902e+03 
4.595234e+02 3.074681e+02 -2.243446e+03 
4.589205e+02 3.102919e+02 -2.241977e+03 
4.583287e+02 3.130820e+02 -2.240430e+03 
4.577190e+02 3.158497e+02 -2.238818e+03 
4.571111e+02 3.185576e+02 -2.237157e+03 
4.564807e+02 3.212391e+02 -2.235437e+03 
4.558255e+02 3.238339e+02 -2.233713e+03 
4.551649e+02 3.263816e+02 -2.232106e+03 
4.543759e+02 3.287770e+02 -2.230269e+03 
4.535378e+02 3.310669e+02 -2.228487e+03 
4.526244e+02 3.332475e+02 -2.226762e+03 
4.516104e+02 3.352721e+02 -2.224948e+03 
4.505461e+02 3.372200e+02 -2.223319e+03 
4.493456e+02 3.390163e+02 -2.221419e+03 
4.481054e+02 3.407064e+02 -2.219549e+03 
4.468018e+02 3.423101e+02 -2.217637e+03 
4.455061e+02 3.438555e+02 -2.215741e+03 
4.442143e+02 3.453464e+02 -2.213777e+03 
4.429099e+02 3.467592e+02 -2.211784e+03 
4.415431e+02 3.481259e+02 -2.209605e+03 
4.402298e+02 3.494619e+02 -2.207575e+03 
4.389202e+02 3.507663e+02 -2.205430e+03 
4.375644e+02 3.519516e+02 -2.203167e+03 
4.361891e+02 3.530979e+02 -2.201029e+03 
4.347508e+02 3.541723e+02 -2.198847e+03 
4.333378e+02 3.551766e+02 -2.196834e+03 
4.318183e+02 3.560708e+02 -2.194770e+03 
4.301738e+02 3.568735e+02 -2.192698e+03 
4.285165e+02 3.575698e+02 -2.190690e+03 
4.268166e+02 3.581873e+02 -2.188579e+03 
4.250716e+02 3.587270e+02 -2.186565e+03 
4.233078e+02 3.591914e+02 -2.184526e+03 
4.215665e+02 3.596322e+02 -2.182647e+03 
4.197835e+02 3.600027e+02 -2.180600e+03 
4.180089e+02 3.603367e+02 -2.178711e+03 
4.162335e+02 3.606060e+02 -2.176786e+03 
4.144615e+02 3.607924e+02 -2.174892e+03 
4.126376e+02 3.609194e+02 -2.172963e+03 
4.107886e+02 3.609818e+02 -2.171033e+03 
4.089397e+02 3.609709e+02 -2.169174e+03 
4.070734e+02 3.608633e+02 -2.167329e+03 
4.051729e+02 3.606477e+02 -2.165442e+03 
4.032353e+02 3.603692e+02 -2.163631e+03 
4.012668e+02 3.599887e+02 -2.161701e+03 
3.993188e+02 3.595615e+02 -2.159904e+03 
3.973745e+02 3.590868e+02 -2.158098e+03 
3.954158e+02 3.585526e+02 -2.156365e+03 
3.934415e+02 3.579278e+02 -2.154584e+03 
3.914788e+02 3.572357e+02 -2.152752e+03 
3.895424e+02 3.564937e+02 -2.150932e+03 
3.875960e+02 3.556804e+02 -2.149109e+03 
3.856671e+02 3.548187e+02 -2.147347e+03 
3.836976e+02 3.538885e+02 -2.145693e+03 
3.817354e+02 3.529073e+02 -2.144135e+03 
3.797624e+02 3.518230e+02 -2.142506e+03 
3.777364e+02 3.506619e+02 -2.140893e+03 
3.757479e+02 3.494386e+02 -2.139347e+03 
3.736760e+02 3.481395e+02 -2.137774e+03 
3.716253e+02 3.467289e+02 -2.136143e+03 
3.695787e+02 3.452534e+02 -2.134623e+03 
3.675685e+02 3.437632e+02 -2.133174e+03 
3.655603e+02 3.422236e+02 -2.131651e+03 
3.635308e+02 3.406100e+02 -2.130204e+03 
3.615377e+02 3.389226e+02 -2.128657e+03 
3.595879e+02 3.372263e+02 -2.127406e+03 
3.575847e+02 3.354341e+02 -2.125911e+03 
3.555941e+02 3.336167e+02 -2.124558e+03 
3.536000e+02 3.317590e+02 -2.123286e+03 
3.516437e+02 3.298098e+02 -2.121988e+03 
3.496801e+02 3.278504e+02 -2.120692e+03 
3.477177e+02 3.258567e+02 -2.119544e+03 
3.457428e+02 3.237956e+02 -2.118372e+03 
3.438177e+02 3.217390e+02 -2.117240e+03 
3.418961e+02 3.196140e+02 -2.116129e+03 
3.399693e+02 3.174816e+02 -2.115189e+03 
3.380606e+02 3.153110e+02 -2.114038e+03 
3.361685e+02 3.131248e+02 -2.113234e+03 

3.343392e+02 3.109046e+02 -2.112193e+03 
3.325240e+02 3.086509e+02 -2.111323e+03 
3.307134e+02 3.063387e+02 -2.110486e+03 
3.288736e+02 3.040189e+02 -2.109597e+03 
3.270908e+02 3.015807e+02 -2.108806e+03 
3.253095e+02 2.991307e+02 -2.108072e+03 
3.234886e+02 2.965852e+02 -2.107343e+03 
3.216352e+02 2.939662e+02 -2.106564e+03 
3.198672e+02 2.912926e+02 -2.105994e+03 
3.180608e+02 2.886384e+02 -2.105369e+03 
3.162418e+02 2.858438e+02 -2.104553e+03 
3.145264e+02 2.830937e+02 -2.103909e+03 
3.128025e+02 2.803615e+02 -2.103173e+03 
3.111707e+02 2.775932e+02 -2.102398e+03 
3.096116e+02 2.748894e+02 -2.101579e+03 
3.080746e+02 2.721739e+02 -2.100803e+03 
3.066434e+02 2.695031e+02 -2.099941e+03 
3.052286e+02 2.668506e+02 -2.099211e+03 
3.038479e+02 2.641890e+02 -2.098436e+03 
3.024454e+02 2.614978e+02 -2.097728e+03 
3.010402e+02 2.588393e+02 -2.097081e+03 
2.996944e+02 2.561118e+02 -2.096656e+03 
2.983058e+02 2.533538e+02 -2.095957e+03 
2.969310e+02 2.505798e+02 -2.095588e+03 
2.955026e+02 2.477741e+02 -2.095259e+03 
2.940539e+02 2.449245e+02 -2.094859e+03 
2.927390e+02 2.420496e+02 -2.094517e+03 
2.913904e+02 2.391429e+02 -2.094214e+03 
2.900440e+02 2.362130e+02 -2.093900e+03 
2.887330e+02 2.332806e+02 -2.093715e+03 
2.874449e+02 2.303395e+02 -2.093394e+03 
2.862260e+02 2.274400e+02 -2.093229e+03 
2.850051e+02 2.246025e+02 -2.092988e+03 
2.838368e+02 2.217859e+02 -2.092808e+03 
2.827476e+02 2.190526e+02 -2.092616e+03 
2.816317e+02 2.163603e+02 -2.092450e+03 
2.805894e+02 2.137647e+02 -2.092358e+03 
2.795552e+02 2.112281e+02 -2.092133e+03 
2.786354e+02 2.087479e+02 -2.092075e+03 
2.776787e+02 2.063611e+02 -2.091868e+03 
2.767518e+02 2.040535e+02 -2.091786e+03 
2.758405e+02 2.017908e+02 -2.091819e+03 
2.749311e+02 1.995212e+02 -2.091679e+03 
2.740855e+02 1.973832e+02 -2.091815e+03 
2.732085e+02 1.952346e+02 -2.091780e+03 
2.723529e+02 1.931976e+02 -2.091855e+03 
2.715396e+02 1.912133e+02 -2.091880e+03 
2.707868e+02 1.893467e+02 -2.091936e+03 
2.700469e+02 1.875175e+02 -2.091938e+03 
2.693328e+02 1.858212e+02 -2.092255e+03 
2.686174e+02 1.842009e+02 -2.092435e+03 
2.679237e+02 1.826299e+02 -2.092617e+03 
2.671928e+02 1.810913e+02 -2.092747e+03 
2.664781e+02 1.796588e+02 -2.092948e+03 
2.657973e+02 1.783503e+02 -2.093288e+03 
2.651586e+02 1.771251e+02 -2.093446e+03 
2.645736e+02 1.759773e+02 -2.093450e+03 
2.640718e+02 1.749027e+02 -2.093423e+03 
2.636233e+02 1.739169e+02 -2.093348e+03 
2.631772e+02 1.730307e+02 -2.093404e+03 
2.627462e+02 1.722479e+02 -2.093438e+03 
2.623665e+02 1.715941e+02 -2.093366e+03 
2.620006e+02 1.710489e+02 -2.093261e+03 
2.616827e+02 1.706034e+02 -2.093176e+03 
2.613738e+02 1.702865e+02 -2.093145e+03 
2.610972e+02 1.700386e+02 -2.093097e+03 
2.608118e+02 1.698821e+02 -2.093069e+03 
2.605437e+02 1.697739e+02 -2.093051e+03 
2.602696e+02 1.696927e+02 -2.093044e+03 
2.600123e+02 1.696207e+02 -2.093019e+03 
2.598066e+02 1.695596e+02 -2.093000e+03 
2.595944e+02 1.695126e+02 -2.093008e+03 
2.594075e+02 1.694779e+02 -2.093004e+03 
2.592390e+02 1.694674e+02 -2.093018e+03 
2.590706e+02 1.694900e+02 -2.093066e+03 
2.589124e+02 1.695408e+02 -2.093165e+03 
2.587609e+02 1.696264e+02 -2.093266e+03 
2.586300e+02 1.697335e+02 -2.093346e+03 
2.584989e+02 1.698462e+02 -2.093438e+03 
2.583938e+02 1.699657e+02 -2.093521e+03 
2.583170e+02 1.700887e+02 -2.093624e+03 
2.582709e+02 1.702110e+02 -2.093696e+03 
2.582251e+02 1.703198e+02 -2.093709e+03 
2.581833e+02 1.704131e+02 -2.093716e+03 
2.581502e+02 1.705021e+02 -2.093758e+03 
2.581308e+02 1.705785e+02 -2.093841e+03 
2.580987e+02 1.706503e+02 -2.093915e+03 
2.580777e+02 1.707139e+02 -2.094002e+03 
2.580744e+02 1.707637e+02 -2.094102e+03 
2.580598e+02 1.707946e+02 -2.094177e+03 
2.580451e+02 1.707982e+02 -2.094179e+03 
2.580466e+02 1.707830e+02 -2.094226e+03 
2.580298e+02 1.707431e+02 -2.094232e+03 
2.580238e+02 1.706690e+02 -2.094237e+03 
2.580044e+02 1.705746e+02 -2.094257e+03 
2.579812e+02 1.704567e+02 -2.094291e+03 
2.579505e+02 1.703261e+02 -2.094354e+03 
2.579094e+02 1.701886e+02 -2.094404e+03 
2.578732e+02 1.700394e+02 -2.094456e+03 
2.578450e+02 1.698767e+02 -2.094511e+03 
2.578248e+02 1.697234e+02 -2.094589e+03 
2.578169e+02 1.695816e+02 -2.094677e+03 
2.578021e+02 1.694270e+02 -2.094764e+03 
2.577813e+02 1.692474e+02 -2.094833e+03 
2.577549e+02 1.690688e+02 -2.094891e+03 
2.577160e+02 1.689074e+02 -2.094920e+03 
2.576855e+02 1.687396e+02 -2.095002e+03 
2.576377e+02 1.685535e+02 -2.095021e+03 
2.575901e+02 1.683875e+02 -2.095065e+03 
2.575396e+02 1.682411e+02 -2.095118e+03 
2.574953e+02 1.681018e+02 -2.095197e+03 
2.574396e+02 1.679702e+02 -2.095243e+03 
2.573966e+02 1.678584e+02 -2.095246e+03 
2.573633e+02 1.677758e+02 -2.095272e+03 
2.573390e+02 1.677013e+02 -2.095276e+03 
2.573171e+02 1.676420e+02 -2.095290e+03 
2.573080e+02 1.675935e+02 -2.095319e+03 
2.572934e+02 1.675434e+02 -2.095318e+03 
2.572803e+02 1.674955e+02 -2.095338e+03 
2.572568e+02 1.674321e+02 -2.095345e+03 
2.572271e+02 1.673640e+02 -2.095359e+03 
2.571892e+02 1.672932e+02 -2.095347e+03 
2.571480e+02 1.672310e+02 -2.095347e+03 
2.571232e+02 1.671793e+02 -2.095336e+03 
2.571018e+02 1.671480e+02 -2.095324e+03 
2.570952e+02 1.671335e+02 -2.095292e+03 
2.571031e+02 1.671454e+02 -2.095306e+03 
2.571079e+02 1.671731e+02 -2.095286e+03 
2.571337e+02 1.672308e+02 -2.095302e+03 
2.571548e+02 1.673045e+02 -2.095323e+03 
2.571861e+02 1.673809e+02 -2.095321e+03 
2.572190e+02 1.674548e+02 -2.095329e+03 
2.572690e+02 1.675152e+02 -2.095318e+03 
2.573002e+02 1.675613e+02 -2.095297e+03 
2.573378e+02 1.676008e+02 -2.095316e+03 
2.573658e+02 1.676177e+02 -2.095299e+03 
2.573804e+02 1.676261e+02 -2.095314e+03 
2.574054e+02 1.676212e+02 -2.095338e+03 
2.574223e+02 1.675972e+02 -2.095358e+03 
2.574291e+02 1.675615e+02 -2.095386e+03 
2.574389e+02 1.675089e+02 -2.095413e+03 
2.574515e+02 1.674534e+02 -2.095453e+03 
2.574639e+02 1.674018e+02 -2.095495e+03 
2.574819e+02 1.673634e+02 -2.095527e+03 
2.575106e+02 1.673455e+02 -2.095557e+03 
2.575375e+02 1.673588e+02 -2.095586e+03 
2.575732e+02 1.673939e+02 -2.095606e+03 
2.576074e+02 1.674409e+02 -2.095619e+03 
2.576402e+02 1.674851e+02 -2.095613e+03 
2.576682e+02 1.675397e+02 -2.095588e+03 
2.577023e+02 1.675941e+02 -2.095597e+03 
2.577333e+02 1.676485e+02 -2.095580e+03 
2.577560e+02 1.676955e+02 -2.095565e+03 
2.577938e+02 1.677280e+02 -2.095585e+03 
2.578145e+02 1.677362e+02 -2.095583e+03 
2.578347e+02 1.677264e+02 -2.095588e+03 
2.578412e+02 1.676850e+02 -2.095595e+03 
2.578471e+02 1.676198e+02 -2.095666e+03 
2.578249e+02 1.675243e+02 -2.095729e+03 
2.578015e+02 1.674080e+02 -2.095803e+03 
2.577534e+02 1.672680e+02 -2.095824e+03 
2.577060e+02 1.671187e+02 -2.095796e+03 
2.576487e+02 1.669875e+02 -2.095798e+03 
2.576006e+02 1.668748e+02 -2.095845e+03 
2.575520e+02 1.667856e+02 -2.095871e+03 
2.575185e+02 1.667244e+02 -2.095888e+03 
2.574912e+02 1.666916e+02 -2.095857e+03 
2.574819e+02 1.667011e+02 -2.095857e+03 
2.574883e+02 1.667393e+02 -2.095812e+03 
2.574959e+02 1.668157e+02 -2.095771e+03 
2.575218e+02 1.669182e+02 -2.095706e+03 
2.575687e+02 1.670359e+02 -2.095664e+03 
2.576154e+02 1.671678e+02 -2.095675e+03 
2.576567e+02 1.672955e+02 -2.095665e+03 
2.577007e+02 1.674189e+02 -2.095646e+03 
2.577270e+02 1.675147e+02 -2.095604e+03 
2.577451e+02 1.675967e+02 -2.095567e+03 
2.577550e+02 1.676525e+02 -2.095565e+03 
2.577619e+02 1.676857e+02 -2.095591e+03 
2.577545e+02 1.676829e+02 -2.095599e+03 
2.577494e+02 1.676534e+02 -2.095634e+03 
2.577344e+02 1.676032e+02 -2.095663e+03 
2.577262e+02 1.675390e+02 -2.095730e+03 
2.577131e+02 1.674685e+02 -2.095771e+03 
2.576976e+02 1.674089e+02 -2.095828e+03 
2.576883e+02 1.673687e+02 -2.095858e+03 
2.576774e+02 1.673454e+02 -2.095886e+03 
2.576737e+02 1.673548e+02 -2.095909e+03 
2.576658e+02 1.673963e+02 -2.095887e+03 
2.576765e+02 1.674824e+02 -2.095877e+03 
2.576780e+02 1.675869e+02 -2.095803e+03 
2.576926e+02 1.677137e+02 -2.095746e+03 
2.577026e+02 1.678611e+02 -2.095763e+03 
2.577174e+02 1.680127e+02 -2.095773e+03 
2.577216e+02 1.681591e+02 -2.095744e+03 
2.577153e+02 1.682968e+02 -2.095661e+03 
2.577176e+02 1.684400e+02 -2.095682e+03 
2.577203e+02 1.685817e+02 -2.095741e+03 
2.577145e+02 1.687018e+02 -2.095766e+03 
2.576954e+02 1.688078e+02 -2.095760e+03 
2.576671e+02 1.688917e+02 -2.095726e+03 
2.576367e+02 1.689579e+02 -2.095740e+03 
2.576027e+02 1.689945e+02 -2.095742e+03 
2.575430e+02 1.690112e+02 -2.095747e+03 
