2.384239e+02 -4.513512e+02 -2.090174e+03 
2.384342e+02 -4.513488e+02 -2.090205e+03 
2.384305e+02 -4.513488e+02 -2.090179e+03 
2.384359e+02 -4.513461e+02 -2.090184e+03 
2.384394e+02 -4.513441e+02 -2.090147e+03 
2.384536e+02 -4.513412e+02 -2.090173e+03 
2.384556e+02 -4.513375e+02 -2.090181e+03 
2.384573e+02 -4.513341e+02 -2.090163e+03 
2.384515e+02 -4.513275e+02 -2.090144e+03 
2.384452e+02 -4.513248e+02 -2.090152e+03 
2.384440e+02 -4.513231e+02 -2.090194e+03 
2.384299e+02 -4.513210e+02 -2.090142e+03 
2.384239e+02 -4.513194e+02 -2.090149e+03 
2.384254e+02 -4.513259e+02 -2.090192e+03 
2.384255e+02 -4.513274e+02 -2.090169e+03 
2.384250e+02 -4.513307e+02 -2.090185e+03 
2.384237e+02 -4.513323e+02 -2.090131e+03 
2.384398e+02 -4.513386e+02 -2.090174e+03 
2.384369e+02 -4.513453e+02 -2.090177e+03 
2.384534e+02 -4.513368e+02 -2.090173e+03 
2.384477e+02 -4.513469e+02 -2.090175e+03 
2.384660e+02 -4.513410e+02 -2.090188e+03 
2.384564e+02 -4.513419e+02 -2.090200e+03 
2.384535e+02 -4.513304e+02 -2.090162e+03 
2.384495e+02 -4.513327e+02 -2.090175e+03 
2.384365e+02 -4.513214e+02 -2.090169e+03 
2.384310e+02 -4.513133e+02 -2.090163e+03 
2.384314e+02 -4.513179e+02 -2.090197e+03 
2.384288e+02 -4.513049e+02 -2.090177e+03 
2.384306e+02 -4.513104e+02 -2.090177e+03 
2.384317e+02 -4.513109e+02 -2.090168e+03 
2.384408e+02 -4.513152e+02 -2.090205e+03 
2.384389e+02 -4.513136e+02 -2.090180e+03 
2.384476e+02 -4.513193e+02 -2.090171e+03 
2.384482e+02 -4.513207e+02 -2.090168e+03 
2.384527e+02 -4.513238e+02 -2.090134e+03 
2.384550e+02 -4.513319e+02 -2.090192e+03 
2.384486e+02 -4.513354e+02 -2.090151e+03 
2.384409e+02 -4.513352e+02 -2.090158e+03 
2.384352e+02 -4.513303e+02 -2.090180e+03 
2.384259e+02 -4.513306e+02 -2.090163e+03 
2.384314e+02 -4.513241e+02 -2.090163e+03 
2.384318e+02 -4.513205e+02 -2.090171e+03 
2.384330e+02 -4.513179e+02 -2.090159e+03 
2.384411e+02 -4.513125e+02 -2.090155e+03 
2.384422e+02 -4.513052e+02 -2.090163e+03 
2.384477e+02 -4.513007e+02 -2.090158e+03 
2.384494e+02 -4.512978e+02 -2.090156e+03 
2.384537e+02 -4.512994e+02 -2.090163e+03 
2.384523e+02 -4.513009e+02 -2.090169e+03 
2.384493e+02 -4.512987e+02 -2.090158e+03 
2.384479e+02 -4.513062e+02 -2.090158e+03 
2.384448e+02 -4.513111e+02 -2.090159e+03 
2.384468e+02 -4.513154e+02 -2.090195e+03 
2.384436e+02 -4.513204e+02 -2.090161e+03 
2.384375e+02 -4.513173e+02 -2.090156e+03 
2.384377e+02 -4.513158e+02 -2.090162e+03 
2.384317e+02 -4.513132e+02 -2.090149e+03 
2.384474e+02 -4.513173e+02 -2.090175e+03 
2.384479e+02 -4.513145e+02 -2.090165e+03 
2.384577e+02 -4.513094e+02 -2.090194e+03 
2.384565e+02 -4.513095e+02 -2.090177e+03 
2.384477e+02 -4.512998e+02 -2.090150e+03 
2.384488e+02 -4.513007e+02 -2.090164e+03 
2.384393e+02 -4.512949e+02 -2.090142e+03 
2.384318e+02 -4.512957e+02 -2.090159e+03 
2.384297e+02 -4.512947e+02 -2.090152e+03 
2.384236e+02 -4.512979e+02 -2.090168e+03 
2.384187e+02 -4.512987e+02 -2.090150e+03 
2.384161e+02 -4.512941e+02 -2.090156e+03 
2.384197e+02 -4.512950e+02 -2.090145e+03 
2.384233e+02 -4.512960e+02 -2.090135e+03 
2.384334e+02 -4.513102e+02 -2.090182e+03 
2.384470e+02 -4.513014e+02 -2.090177e+03 
2.384510e+02 -4.513057e+02 -2.090146e+03 
2.384559e+02 -4.513029e+02 -2.090143e+03 
2.384630e+02 -4.513042e+02 -2.090170e+03 
2.384549e+02 -4.512990e+02 -2.090146e+03 
2.384536e+02 -4.512919e+02 -2.090164e+03 

2.384474e+02 -4.512918e+02 -2.090151e+03 
2.384384e+02 -4.512889e+02 -2.090138e+03 
2.384380e+02 -4.512756e+02 -2.090142e+03 
2.384265e+02 -4.512790e+02 -2.090160e+03 
2.384227e+02 -4.512762e+02 -2.090165e+03 
2.384323e+02 -4.512766e+02 -2.090173e+03 
2.384307e+02 -4.512731e+02 -2.090148e+03 
2.384315e+02 -4.512701e+02 -2.090135e+03 
2.384427e+02 -4.512695e+02 -2.090126e+03 
2.384577e+02 -4.512782e+02 -2.090153e+03 
2.384564e+02 -4.512742e+02 -2.090125e+03 
2.384709e+02 -4.512826e+02 -2.090137e+03 
2.384708e+02 -4.512786e+02 -2.090116e+03 
2.384637e+02 -4.512743e+02 -2.090149e+03 
2.384545e+02 -4.512740e+02 -2.090125e+03 
2.384552e+02 -4.512695e+02 -2.090126e+03 
2.384457e+02 -4.512598e+02 -2.090120e+03 
2.384481e+02 -4.512570e+02 -2.090112e+03 
2.384471e+02 -4.512555e+02 -2.090139e+03 
2.384429e+02 -4.512412e+02 -2.090142e+03 
2.384449e+02 -4.512361e+02 -2.090104e+03 
2.384535e+02 -4.512317e+02 -2.090080e+03 
2.384698e+02 -4.512275e+02 -2.090073e+03 
2.384682e+02 -4.512347e+02 -2.090087e+03 
2.384869e+02 -4.512343e+02 -2.090129e+03 
2.384858e+02 -4.512360e+02 -2.090081e+03 
2.384805e+02 -4.512348e+02 -2.090094e+03 
2.384745e+02 -4.512306e+02 -2.090080e+03 
2.384640e+02 -4.512390e+02 -2.090086e+03 
2.384551e+02 -4.512400e+02 -2.090101e+03 
2.384501e+02 -4.512480e+02 -2.090086e+03 
2.384426e+02 -4.512459e+02 -2.090104e+03 
2.384479e+02 -4.512441e+02 -2.090091e+03 
2.384493e+02 -4.512441e+02 -2.090115e+03 
2.384608e+02 -4.512369e+02 -2.090083e+03 
2.384552e+02 -4.512369e+02 -2.090072e+03 
2.384658e+02 -4.512313e+02 -2.090100e+03 
2.384790e+02 -4.512265e+02 -2.090080e+03 
2.384864e+02 -4.512229e+02 -2.090076e+03 
2.384957e+02 -4.512205e+02 -2.090096e+03 
2.384978e+02 -4.512160e+02 -2.090107e+03 
2.384809e+02 -4.512098e+02 -2.090041e+03 
2.384792e+02 -4.512160e+02 -2.090079e+03 
2.384708e+02 -4.512137e+02 -2.090106e+03 
2.384574e+02 -4.512165e+02 -2.090085e+03 
2.384630e+02 -4.512213e+02 -2.090091e+03 
2.384621e+02 -4.512199e+02 -2.090075e+03 
2.384632e+02 -4.512293e+02 -2.090076e+03 
2.384691e+02 -4.512306e+02 -2.090124e+03 
2.384691e+02 -4.512315e+02 -2.090071e+03 
2.384767e+02 -4.512323e+02 -2.090107e+03 
2.384850e+02 -4.512330e+02 -2.090087e+03 
2.384923e+02 -4.512263e+02 -2.090067e+03 
2.384869e+02 -4.512233e+02 -2.090074e+03 
2.384874e+02 -4.512211e+02 -2.090093e+03 
2.384814e+02 -4.512163e+02 -2.090086e+03 
2.384734e+02 -4.512105e+02 -2.090086e+03 
2.384648e+02 -4.512067e+02 -2.090061e+03 
2.384644e+02 -4.512067e+02 -2.090061e+03 
2.384605e+02 -4.512007e+02 -2.090047e+03 
2.384616e+02 -4.511983e+02 -2.090061e+03 
2.384678e+02 -4.512073e+02 -2.090071e+03 
2.384787e+02 -4.512068e+02 -2.090032e+03 
2.384907e+02 -4.512069e+02 -2.090058e+03 
2.384956e+02 -4.512105e+02 -2.090056e+03 
2.384992e+02 -4.512148e+02 -2.090053e+03 
2.384995e+02 -4.512121e+02 -2.090069e+03 
2.385067e+02 -4.512137e+02 -2.090064e+03 
2.384991e+02 -4.512123e+02 -2.090069e+03 
2.384828e+02 -4.512068e+02 -2.090057e+03 
2.384788e+02 -4.512029e+02 -2.090044e+03 
2.384636e+02 -4.512083e+02 -2.090037e+03 
2.384639e+02 -4.512006e+02 -2.090052e+03 
2.384651e+02 -4.511866e+02 -2.090020e+03 
2.384645e+02 -4.511937e+02 -2.090050e+03 
2.384842e+02 -4.511919e+02 -2.090083e+03 
2.384902e+02 -4.511909e+02 -2.090046e+03 
2.384962e+02 -4.511836e+02 -2.090037e+03 
2.385071e+02 -4.511875e+02 -2.090028e+03 
2.385124e+02 -4.511804e+02 -2.090001e+03 
2.385080e+02 -4.511945e+02 -2.090046e+03 
2.385078e+02 -4.511903e+02 -2.090046e+03 
2.385077e+02 -4.511895e+02 -2.090023e+03 
2.384942e+02 -4.511984e+02 -2.090055e+03 
2.384872e+02 -4.511908e+02 -2.090040e+03 
2.384855e+02 -4.511932e+02 -2.090035e+03 
2.384850e+02 -4.511972e+02 -2.090051e+03 
2.384853e+02 -4.511855e+02 -2.090038e+03 
2.384835e+02 -4.511835e+02 -2.090034e+03 
2.384982e+02 -4.511866e+02 -2.090042e+03 
2.385023e+02 -4.511807e+02 -2.090023e+03 
2.385105e+02 -4.511748e+02 -2.090004e+03 
2.385230e+02 -4.511764e+02 -2.090020e+03 
2.385211e+02 -4.511671e+02 -2.090040e+03 
2.385297e+02 -4.511685e+02 -2.090025e+03 
2.385246e+02 -4.511658e+02 -2.090003e+03 
2.385192e+02 -4.511624e+02 -2.089998e+03 
2.385122e+02 -4.511609e+02 -2.090001e+03 
2.385141e+02 -4.511611e+02 -2.090029e+03 
2.385065e+02 -4.511594e+02 -2.090018e+03 
2.385056e+02 -4.511578e+02 -2.089990e+03 
2.385109e+02 -4.511621e+02 -2.090025e+03 
2.385098e+02 -4.511505e+02 -2.089991e+03 
2.385172e+02 -4.511518e+02 -2.089989e+03 
2.385326e+02 -4.511433e+02 -2.089965e+03 
2.385506e+02 -4.511279e+02 -2.089975e+03 
2.385604e+02 -4.510970e+02 -2.089940e+03 
2.385738e+02 -4.510539e+02 -2.089955e+03 
2.385792e+02 -4.509998e+02 -2.089957e+03 
2.385886e+02 -4.509404e+02 -2.089966e+03 
2.385850e+02 -4.508675e+02 -2.089980e+03 
2.385968e+02 -4.508060e+02 -2.089991e+03 
2.385890e+02 -4.506937e+02 -2.090006e+03 
2.385468e+02 -4.504788e+02 -2.089923e+03 
2.384647e+02 -4.502081e+02 -2.089810e+03 
2.383497e+02 -4.498613e+02 -2.089714e+03 
2.381844e+02 -4.494385e+02 -2.089448e+03 
2.379610e+02 -4.488898e+02 -2.089102e+03 
2.376403e+02 -4.482704e+02 -2.088817e+03 
2.373189e+02 -4.475497e+02 -2.088417e+03 
2.368883e+02 -4.467189e+02 -2.087916e+03 
2.364528e+02 -4.457760e+02 -2.087387e+03 
2.359212e+02 -4.447172e+02 -2.086835e+03 
2.354120e+02 -4.435288e+02 -2.086188e+03 
2.349147e+02 -4.422498e+02 -2.085622e+03 
2.348121e+02 -4.415483e+02 -2.085277e+03 
2.348096e+02 -4.407284e+02 -2.084804e+03 
2.347662e+02 -4.394621e+02 -2.083931e+03 
2.347357e+02 -4.379022e+02 -2.083100e+03 
2.347319e+02 -4.361598e+02 -2.082137e+03 
2.347913e+02 -4.343447e+02 -2.080870e+03 
2.348878e+02 -4.324898e+02 -2.079490e+03 
2.351407e+02 -4.306064e+02 -2.077952e+03 
2.354967e+02 -4.287212e+02 -2.076659e+03 
2.358887e+02 -4.267719e+02 -2.075161e+03 
2.363570e+02 -4.247625e+02 -2.073775e+03 
2.368264e+02 -4.227762e+02 -2.072562e+03 
2.372706e+02 -4.207125e+02 -2.071208e+03 
2.377038e+02 -4.186305e+02 -2.070213e+03 
2.380704e+02 -4.165602e+02 -2.069379e+03 
2.383727e+02 -4.143878e+02 -2.068366e+03 
2.386952e+02 -4.122549e+02 -2.067833e+03 
2.388412e+02 -4.098907e+02 -2.067051e+03 
2.390474e+02 -4.074823e+02 -2.066634e+03 
2.391299e+02 -4.049652e+02 -2.066154e+03 
2.391046e+02 -4.022663e+02 -2.065570e+03 
2.390697e+02 -3.994272e+02 -2.065203e+03 
2.389711e+02 -3.964216e+02 -2.064668e+03 
2.388360e+02 -3.932499e+02 -2.064210e+03 
2.386778e+02 -3.899692e+02 -2.063840e+03 
2.385103e+02 -3.865319e+02 -2.063430e+03 
2.382988e+02 -3.830228e+02 -2.062724e+03 
2.380909e+02 -3.792787e+02 -2.062371e+03 
2.378255e+02 -3.755037e+02 -2.061883e+03 
2.375213e+02 -3.715400e+02 -2.061266e+03 
2.372358e+02 -3.675170e+02 -2.060791e+03 
2.369461e+02 -3.633576e+02 -2.060350e+03 
2.366303e+02 -3.590909e+02 -2.059875e+03 
2.362655e+02 -3.546757e+02 -2.059151e+03 
2.359991e+02 -3.502169e+02 -2.058811e+03 
2.356697e+02 -3.456485e+02 -2.058081e+03 
2.353757e+02 -3.409590e+02 -2.057507e+03 
2.351120e+02 -3.362353e+02 -2.056851e+03 
2.348823e+02 -3.314285e+02 -2.056160e+03 
2.346752e+02 -3.265658e+02 -2.055457e+03 
2.344938e+02 -3.216510e+02 -2.054811e+03 
2.342885e+02 -3.166447e+02 -2.053985e+03 
2.341257e+02 -3.116535e+02 -2.053349e+03 
2.339321e+02 -3.065459e+02 -2.052740e+03 
2.337195e+02 -3.013777e+02 -2.052095e+03 
2.334765e+02 -2.961458e+02 -2.051445e+03 
2.332584e+02 -2.908605e+02 -2.051070e+03 
2.329923e+02 -2.855492e+02 -2.050467e+03 
2.326959e+02 -2.801815e+02 -2.049902e+03 
2.323971e+02 -2.747087e+02 -2.049406e+03 
2.321500e+02 -2.692755e+02 -2.048990e+03 
2.319311e+02 -2.637903e+02 -2.048529e+03 
2.317501e+02 -2.582745e+02 -2.048152e+03 
2.315322e+02 -2.527324e+02 -2.047502e+03 
2.313695e+02 -2.471934e+02 -2.047331e+03 
2.312063e+02 -2.415904e+02 -2.046942e+03 
2.310681e+02 -2.360272e+02 -2.046732e+03 
2.309536e+02 -2.303692e+02 -2.046542e+03 
2.308061e+02 -2.247251e+02 -2.046208e+03 
2.306701e+02 -2.189599e+02 -2.046006e+03 
2.305369e+02 -2.132433e+02 -2.045901e+03 
2.304088e+02 -2.074686e+02 -2.045876e+03 
2.302857e+02 -2.016482e+02 -2.045843e+03 
2.301884e+02 -1.957961e+02 -2.045958e+03 
2.300276e+02 -1.899372e+02 -2.045944e+03 
2.298656e+02 -1.840541e+02 -2.046111e+03 
2.297169e+02 -1.781568e+02 -2.046366e+03 
2.295560e+02 -1.722556e+02 -2.046571e+03 
2.294520e+02 -1.663780e+02 -2.046929e+03 
2.293444e+02 -1.605276e+02 -2.047267e+03 
2.292438e+02 -1.546781e+02 -2.047633e+03 
2.291892e+02 -1.488755e+02 -2.048120e+03 
2.291541e+02 -1.430660e+02 -2.048503e+03 
2.291341e+02 -1.372739e+02 -2.048847e+03 
2.292028e+02 -1.314790e+02 -2.049470e+03 
2.292920e+02 -1.257410e+02 -2.050028e+03 
2.293944e+02 -1.200111e+02 -2.050450e+03 
2.295485e+02 -1.143406e+02 -2.050873e+03 
2.297782e+02 -1.087470e+02 -2.051450e+03 
2.300153e+02 -1.032043e+02 -2.051848e+03 
2.302889e+02 -9.771181e+01 -2.052340e+03 
2.306341e+02 -9.231384e+01 -2.052900e+03 
2.310029e+02 -8.697790e+01 -2.053438e+03 
2.313927e+02 -8.170668e+01 -2.053882e+03 
2.318550e+02 -7.651155e+01 -2.054554e+03 
2.322876e+02 -7.137339e+01 -2.055028e+03 
2.327664e+02 -6.631197e+01 -2.055630e+03 
2.332799e+02 -6.128884e+01 -2.056078e+03 
2.337958e+02 -5.632933e+01 -2.056765e+03 
2.342900e+02 -5.144825e+01 -2.057406e+03 
2.348269e+02 -4.658028e+01 -2.058065e+03 
2.353293e+02 -4.174792e+01 -2.058746e+03 
2.358272e+02 -3.698360e+01 -2.059457e+03 
2.363321e+02 -3.221161e+01 -2.060215e+03 
2.368294e+02 -2.753391e+01 -2.061046e+03 
2.372964e+02 -2.287567e+01 -2.061850e+03 
2.378046e+02 -1.829585e+01 -2.062588e+03 
2.383170e+02 -1.377849e+01 -2.063440e+03 
2.387954e+02 -9.331306e+00 -2.064318e+03 
2.392999e+02 -4.935674e+00 -2.065108e+03 
2.398039e+02 -6.138101e-01 -2.066060e+03 
2.403171e+02 3.649333e+00 -2.066848e+03 
2.408618e+02 7.845821e+00 -2.067561e+03 
2.414372e+02 1.200751e+01 -2.068402e+03 
2.420143e+02 1.610047e+01 -2.069184e+03 
2.426054e+02 2.013262e+01 -2.069885e+03 
2.432220e+02 2.409504e+01 -2.070580e+03 
2.438679e+02 2.804043e+01 -2.071345e+03 
2.445113e+02 3.191485e+01 -2.072026e+03 
2.451551e+02 3.571228e+01 -2.072714e+03 
2.457916e+02 3.948318e+01 -2.073371e+03 
2.464253e+02 4.317530e+01 -2.074028e+03 
2.470444e+02 4.678470e+01 -2.074588e+03 
2.476678e+02 5.036166e+01 -2.075276e+03 
2.482856e+02 5.387053e+01 -2.075800e+03 
2.489376e+02 5.731224e+01 -2.076429e+03 
2.495874e+02 6.068883e+01 -2.077058e+03 
2.502135e+02 6.399112e+01 -2.077697e+03 
2.507938e+02 6.721976e+01 -2.078103e+03 
2.514043e+02 7.040536e+01 -2.078705e+03 
2.520089e+02 7.347821e+01 -2.079188e+03 
2.526110e+02 7.649254e+01 -2.079726e+03 
2.532046e+02 7.941328e+01 -2.080233e+03 
2.537724e+02 8.224155e+01 -2.080734e+03 
2.543363e+02 8.501861e+01 -2.081280e+03 
2.548490e+02 8.764605e+01 -2.081647e+03 
2.553635e+02 9.024399e+01 -2.082200e+03 
2.558110e+02 9.275560e+01 -2.082603e+03 
2.562523e+02 9.521613e+01 -2.083101e+03 
2.566904e+02 9.763429e+01 -2.083575e+03 
2.570958e+02 9.999109e+01 -2.083985e+03 
2.575353e+02 1.023244e+02 -2.084485e+03 
2.579147e+02 1.045862e+02 -2.084855e+03 
2.583159e+02 1.068473e+02 -2.085277e+03 
2.586830e+02 1.090420e+02 -2.085624e+03 
2.590771e+02 1.112040e+02 -2.086053e+03 
2.594309e+02 1.132910e+02 -2.086361e+03 
2.597948e+02 1.153700e+02 -2.086820e+03 
2.600921e+02 1.173683e+02 -2.087100e+03 
2.603906e+02 1.193218e+02 -2.087458e+03 
2.606531e+02 1.212118e+02 -2.087772e+03 
2.608866e+02 1.230412e+02 -2.088218e+03 
2.610835e+02 1.248272e+02 -2.088517e+03 
2.612845e+02 1.265660e+02 -2.088974e+03 
2.614484e+02 1.282415e+02 -2.089352e+03 
2.615908e+02 1.298957e+02 -2.089779e+03 
2.616958e+02 1.314625e+02 -2.090108e+03 
2.617899e+02 1.329987e+02 -2.090552e+03 
2.618576e+02 1.344998e+02 -2.090970e+03 
2.619181e+02 1.359973e+02 -2.091436e+03 
2.619556e+02 1.374558e+02 -2.091804e+03 
2.619892e+02 1.388977e+02 -2.092272e+03 
2.620126e+02 1.403110e+02 -2.092710e+03 
2.620112e+02 1.417239e+02 -2.093048e+03 
2.620198e+02 1.431037e+02 -2.093448e+03 
2.620414e+02 1.444876e+02 -2.093897e+03 
2.620660e+02 1.458385e+02 -2.094214e+03 
2.621121e+02 1.471615e+02 -2.094552e+03 
2.621706e+02 1.484742e+02 -2.094839e+03 
2.622430e+02 1.497552e+02 -2.095061e+03 
2.623521e+02 1.510239e+02 -2.095262e+03 
2.624817e+02 1.522693e+02 -2.095451e+03 
2.626307e+02 1.534980e+02 -2.095687e+03 
2.627891e+02 1.546633e+02 -2.095826e+03 
2.629558e+02 1.557699e+02 -2.095941e+03 
2.631128e+02 1.568038e+02 -2.096047e+03 
2.632614e+02 1.577865e+02 -2.096236e+03 
2.633759e+02 1.586584e+02 -2.096395e+03 
2.634484e+02 1.594462e+02 -2.096575e+03 
2.634805e+02 1.601298e+02 -2.096714e+03 
2.634782e+02 1.607281e+02 -2.096907e+03 
2.634297e+02 1.612260e+02 -2.097143e+03 
2.633378e+02 1.616499e+02 -2.097387e+03 
2.632034e+02 1.620032e+02 -2.097681e+03 
2.630377e+02 1.622668e+02 -2.097925e+03 
2.628557e+02 1.624875e+02 -2.098268e+03 
2.626373e+02 1.626412e+02 -2.098589e+03 
2.624117e+02 1.627646e+02 -2.098914e+03 
2.621670e+02 1.628709e+02 -2.099273e+03 
2.619268e+02 1.629672e+02 -2.099615e+03 
2.616706e+02 1.630668e+02 -2.099948e+03 
2.614221e+02 1.631778e+02 -2.100262e+03 
2.612100e+02 1.633282e+02 -2.100620e+03 
2.610078e+02 1.635129e+02 -2.100975e+03 
2.608492e+02 1.637118e+02 -2.101281e+03 
2.607257e+02 1.639509e+02 -2.101640e+03 
2.606130e+02 1.641896e+02 -2.101966e+03 
2.605327e+02 1.644524e+02 -2.102367e+03 
2.605157e+02 1.647096e+02 -2.102652e+03 
2.606003e+02 1.649466e+02 -2.102822e+03 
2.607354e+02 1.651573e+02 -2.102871e+03 
2.608778e+02 1.653526e+02 -2.102934e+03 
2.609828e+02 1.655646e+02 -2.103039e+03 
2.610492e+02 1.657870e+02 -2.103201e+03 
2.611441e+02 1.659624e+02 -2.103296e+03 
2.612475e+02 1.661251e+02 -2.103409e+03 
2.613335e+02 1.662680e+02 -2.103525e+03 
2.614024e+02 1.663757e+02 -2.103609e+03 
2.614622e+02 1.664537e+02 -2.103669e+03 
2.615237e+02 1.665200e+02 -2.103741e+03 
2.615796e+02 1.665728e+02 -2.103788e+03 
2.616387e+02 1.666172e+02 -2.103834e+03 
2.616818e+02 1.666520e+02 -2.103880e+03 
2.617267e+02 1.666815e+02 -2.103934e+03 
2.617620e+02 1.666994e+02 -2.103955e+03 
2.617888e+02 1.667204e+02 -2.103989e+03 
2.618061e+02 1.667322e+02 -2.103996e+03 
2.618089e+02 1.667417e+02 -2.104009e+03 
2.618051e+02 1.667485e+02 -2.104017e+03 
2.617956e+02 1.667517e+02 -2.104022e+03 
2.617746e+02 1.667604e+02 -2.104010e+03 
2.617612e+02 1.667750e+02 -2.104018e+03 
2.617341e+02 1.667984e+02 -2.103999e+03 
2.617076e+02 1.668309e+02 -2.103979e+03 
2.616933e+02 1.668730e+02 -2.103987e+03 
2.616858e+02 1.669255e+02 -2.103979e+03 
2.616752e+02 1.669786e+02 -2.103965e+03 
2.616643e+02 1.670295e+02 -2.103931e+03 
2.616548e+02 1.670851e+02 -2.103924e+03 
2.616461e+02 1.671376e+02 -2.103887e+03 
2.616288e+02 1.671897e+02 -2.103867e+03 
2.616000e+02 1.672363e+02 -2.103834e+03 
2.615691e+02 1.672766e+02 -2.103811e+03 
2.615280e+02 1.673166e+02 -2.103782e+03 
2.614879e+02 1.673435e+02 -2.103763e+03 
2.614443e+02 1.673689e+02 -2.103754e+03 
2.614051e+02 1.673902e+02 -2.103733e+03 
2.613641e+02 1.674136e+02 -2.103698e+03 
2.613359e+02 1.674350e+02 -2.103671e+03 
2.613226e+02 1.674561e+02 -2.103662e+03 
2.613073e+02 1.674691e+02 -2.103640e+03 
2.613044e+02 1.674842e+02 -2.103617e+03 
2.613095e+02 1.674943e+02 -2.103620e+03 
2.613078e+02 1.674977e+02 -2.103601e+03 
2.613130e+02 1.675043e+02 -2.103618e+03 
2.613078e+02 1.675001e+02 -2.103603e+03 
2.612967e+02 1.675018e+02 -2.103605e+03 
2.612864e+02 1.675063e+02 -2.103605e+03 
2.612679e+02 1.675219e+02 -2.103616e+03 
2.612436e+02 1.675402e+02 -2.103613e+03 
2.612239e+02 1.675682e+02 -2.103596e+03 
2.612116e+02 1.676021e+02 -2.103607e+03 
2.611971e+02 1.676380e+02 -2.103590e+03 
2.611870e+02 1.676844e+02 -2.103580e+03 
2.611813e+02 1.677325e+02 -2.103540e+03 
2.611702e+02 1.677844e+02 -2.103518e+03 
2.611724e+02 1.678323e+02 -2.103498e+03 
2.611598e+02 1.678788e+02 -2.103468e+03 
2.611409e+02 1.679195e+02 -2.103454e+03 
2.611182e+02 1.679548e+02 -2.103434e+03 
2.610936e+02 1.679846e+02 -2.103414e+03 
2.610638e+02 1.680088e+02 -2.103413e+03 
2.610314e+02 1.680257e+02 -2.103383e+03 
2.610044e+02 1.680418e+02 -2.103382e+03 
2.609774e+02 1.680489e+02 -2.103363e+03 
2.609633e+02 1.680605e+02 -2.103347e+03 
2.609464e+02 1.680635e+02 -2.103343e+03 
2.609421e+02 1.680678e+02 -2.103321e+03 
2.609410e+02 1.680696e+02 -2.103324e+03 
2.609382e+02 1.680612e+02 -2.103310e+03 
2.609311e+02 1.680481e+02 -2.103307e+03 
2.609117e+02 1.680220e+02 -2.103274e+03 
2.608925e+02 1.679883e+02 -2.103243e+03 
2.608592e+02 1.679462e+02 -2.103218e+03 
2.608239e+02 1.678864e+02 -2.103198e+03 
2.607775e+02 1.678219e+02 -2.103182e+03 
2.607302e+02 1.677426e+02 -2.103155e+03 
2.606893e+02 1.676562e+02 -2.103147e+03 
2.606479e+02 1.675698e+02 -2.103116e+03 
2.606080e+02 1.674885e+02 -2.103064e+03 
2.605896e+02 1.674180e+02 -2.103042e+03 
2.605603e+02 1.673479e+02 -2.103002e+03 
2.605458e+02 1.672864e+02 -2.102970e+03 
2.605432e+02 1.672365e+02 -2.102958e+03 
2.605798e+02 1.671845e+02 -2.102998e+03 
2.606282e+02 1.671108e+02 -2.103055e+03 
2.606552e+02 1.670404e+02 -2.103100e+03 
2.606610e+02 1.669662e+02 -2.103104e+03 
2.606475e+02 1.669104e+02 -2.103115e+03 
2.606312e+02 1.668665e+02 -2.103107e+03 
2.606247e+02 1.668447e+02 -2.103110e+03 
2.606221e+02 1.668342e+02 -2.103111e+03 
2.606240e+02 1.668212e+02 -2.103102e+03 
2.606311e+02 1.668027e+02 -2.103109e+03 
2.606438e+02 1.667830e+02 -2.103129e+03 
2.606505e+02 1.667551e+02 -2.103132e+03 
2.606660e+02 1.667262e+02 -2.103110e+03 
2.606795e+02 1.667159e+02 -2.103116e+03 
2.606845e+02 1.667088e+02 -2.103115e+03 
2.606788e+02 1.667042e+02 -2.103113e+03 
2.606812e+02 1.666999e+02 -2.103109e+03 
2.606721e+02 1.667045e+02 -2.103120e+03 
2.606586e+02 1.667057e+02 -2.103112e+03 
2.606420e+02 1.667061e+02 -2.103112e+03 
2.606249e+02 1.667053e+02 -2.103098e+03 
2.606040e+02 1.667040e+02 -2.103088e+03 
2.605894e+02 1.667031e+02 -2.103070e+03 
2.605707e+02 1.667009e+02 -2.103049e+03 
2.605628e+02 1.666996e+02 -2.103048e+03 
2.605558e+02 1.666951e+02 -2.103024e+03 
2.605498e+02 1.666924e+02 -2.103016e+03 
2.605484e+02 1.666871e+02 -2.103010e+03 
2.605439e+02 1.666890e+02 -2.103002e+03 
2.605461e+02 1.666891e+02 -2.103004e+03 
2.605421e+02 1.666864e+02 -2.102992e+03 
2.605325e+02 1.666868e+02 -2.102987e+03 
2.605246e+02 1.666856e+02 -2.102987e+03 
2.605107e+02 1.666878e+02 -2.102987e+03 
2.605025e+02 1.666952e+02 -2.103001e+03 
2.604932e+02 1.666958e+02 -2.102990e+03 
2.604920e+02 1.666984e+02 -2.102992e+03 
2.604942e+02 1.666994e+02 -2.102987e+03 
2.605085e+02 1.667066e+02 -2.102990e+03 
2.605047e+02 1.667072e+02 -2.102978e+03 
2.605087e+02 1.667149e+02 -2.102974e+03 
2.605121e+02 1.667206e+02 -2.102970e+03 
2.605085e+02 1.667270e+02 -2.102957e+03 
2.605003e+02 1.667321e+02 -2.102952e+03 
2.604923e+02 1.667410e+02 -2.102950e+03 
2.604761e+02 1.667422e+02 -2.102934e+03 
2.604581e+02 1.667489e+02 -2.102942e+03 
2.604376e+02 1.667565e+02 -2.102935e+03 
2.604179e+02 1.667674e+02 -2.102932e+03 
2.604121e+02 1.667712e+02 -2.102932e+03 
2.604145e+02 1.667746e+02 -2.102921e+03 
2.604192e+02 1.667754e+02 -2.102933e+03 
2.604259e+02 1.667752e+02 -2.102934e+03 
2.604346e+02 1.667776e+02 -2.102930e+03 
2.604435e+02 1.667766e+02 -2.102925e+03 
2.604475e+02 1.667765e+02 -2.102920e+03 
2.604560e+02 1.667750e+02 -2.102924e+03 
2.604559e+02 1.667773e+02 -2.102919e+03 
2.604550e+02 1.667774e+02 -2.102923e+03 
2.604431e+02 1.667814e+02 -2.102932e+03 
2.604388e+02 1.667846e+02 -2.102937e+03 
2.604275e+02 1.667832e+02 -2.102931e+03 
2.604206e+02 1.667864e+02 -2.102924e+03 
2.604087e+02 1.667878e+02 -2.102920e+03 
2.603937e+02 1.667954e+02 -2.102911e+03 
2.603935e+02 1.668013e+02 -2.102898e+03 
2.603870e+02 1.668078e+02 -2.102881e+03 
2.603799e+02 1.668174e+02 -2.102857e+03 
2.603768e+02 1.668250e+02 -2.102847e+03 
2.603679e+02 1.668327e+02 -2.102833e+03 
2.603541e+02 1.668387e+02 -2.102829e+03 
2.603543e+02 1.668477e+02 -2.102835e+03 
2.603445e+02 1.668457e+02 -2.102808e+03 
2.603288e+02 1.668510e+02 -2.102808e+03 
2.603169e+02 1.668541e+02 -2.102796e+03 
2.602986e+02 1.668632e+02 -2.102792e+03 
2.602804e+02 1.668691e+02 -2.102777e+03 
2.602692e+02 1.668828e+02 -2.102765e+03 
2.602652e+02 1.668889e+02 -2.102759e+03 
2.602578e+02 1.668950e+02 -2.102740e+03 
2.602540e+02 1.668998e+02 -2.102735e+03 
2.602530e+02 1.669023e+02 -2.102722e+03 
2.602555e+02 1.669069e+02 -2.102712e+03 
2.602512e+02 1.669110e+02 -2.102710e+03 
2.602430e+02 1.669111e+02 -2.102705e+03 
2.602394e+02 1.669144e+02 -2.102704e+03 
2.602317e+02 1.669136e+02 -2.102700e+03 
2.602213e+02 1.669095e+02 -2.102690e+03 
2.602101e+02 1.669135e+02 -2.102697e+03 
2.601940e+02 1.669183e+02 -2.102682e+03 
2.601846e+02 1.669263e+02 -2.102676e+03 
2.601713e+02 1.669315e+02 -2.102661e+03 
2.601549e+02 1.669420e+02 -2.102650e+03 
2.601469e+02 1.669467e+02 -2.102625e+03 
2.601298e+02 1.669588e+02 -2.102618e+03 
2.601177e+02 1.669638e+02 -2.102585e+03 
2.601116e+02 1.669684e+02 -2.102583e+03 
2.601044e+02 1.669703e+02 -2.102562e+03 
2.600951e+02 1.669740e+02 -2.102560e+03 
2.600816e+02 1.669767e+02 -2.102559e+03 
2.600636e+02 1.669809e+02 -2.102553e+03 
2.600462e+02 1.669799e+02 -2.102539e+03 
2.600421e+02 1.669783e+02 -2.102538e+03 
2.600382e+02 1.669736e+02 -2.102527e+03 
2.600345e+02 1.669710e+02 -2.102529e+03 
2.600393e+02 1.669698e+02 -2.102539e+03 
2.600404e+02 1.669638e+02 -2.102531e+03 
2.600384e+02 1.669595e+02 -2.102517e+03 
2.600474e+02 1.669565e+02 -2.102521e+03 
2.600592e+02 1.669530e+02 -2.102524e+03 
2.600645e+02 1.669462e+02 -2.102533e+03 
2.600683e+02 1.669345e+02 -2.102535e+03 
2.600717e+02 1.669121e+02 -2.102530e+03 
2.600800e+02 1.668817e+02 -2.102543e+03 
2.600787e+02 1.668378e+02 -2.102557e+03 
2.600773e+02 1.667956e+02 -2.102556e+03 
2.600759e+02 1.667735e+02 -2.102561e+03 
2.600764e+02 1.667611e+02 -2.102556e+03 
2.600832e+02 1.667531e+02 -2.102563e+03 
2.600809e+02 1.667438e+02 -2.102557e+03 
2.600905e+02 1.667365e+02 -2.102562e+03 
2.600979e+02 1.667291e+02 -2.102562e+03 
