2.413549e+02 -4.431062e+02 -2.092781e+03 
2.413564e+02 -4.431035e+02 -2.092764e+03 
2.413643e+02 -4.431088e+02 -2.092777e+03 
2.413639e+02 -4.431076e+02 -2.092760e+03 
2.413627e+02 -4.431134e+02 -2.092802e+03 
2.413527e+02 -4.431159e+02 -2.092784e+03 
2.413429e+02 -4.431110e+02 -2.092785e+03 
2.413396e+02 -4.431130e+02 -2.092803e+03 
2.413213e+02 -4.431121e+02 -2.092803e+03 
2.413133e+02 -4.431098e+02 -2.092776e+03 
2.413136e+02 -4.431094e+02 -2.092794e+03 
2.413220e+02 -4.431129e+02 -2.092806e+03 
2.413211e+02 -4.431146e+02 -2.092806e+03 
2.413270e+02 -4.431121e+02 -2.092749e+03 
2.413473e+02 -4.431132e+02 -2.092801e+03 
2.413489e+02 -4.431167e+02 -2.092757e+03 
2.413582e+02 -4.431168e+02 -2.092776e+03 
2.413621e+02 -4.431205e+02 -2.092780e+03 
2.413497e+02 -4.431237e+02 -2.092818e+03 
2.413390e+02 -4.431205e+02 -2.092791e+03 
2.413324e+02 -4.431271e+02 -2.092812e+03 
2.413205e+02 -4.431263e+02 -2.092797e+03 
2.413074e+02 -4.431259e+02 -2.092798e+03 
2.412947e+02 -4.431257e+02 -2.092764e+03 
2.412913e+02 -4.431313e+02 -2.092808e+03 
2.412892e+02 -4.431282e+02 -2.092798e+03 
2.412854e+02 -4.431285e+02 -2.092770e+03 
2.412847e+02 -4.431267e+02 -2.092768e+03 
2.412875e+02 -4.431229e+02 -2.092744e+03 
2.412924e+02 -4.431309e+02 -2.092766e+03 
2.412831e+02 -4.431255e+02 -2.092718e+03 
2.412666e+02 -4.431232e+02 -2.092695e+03 
2.412491e+02 -4.431211e+02 -2.092687e+03 
2.412310e+02 -4.431245e+02 -2.092706e+03 
2.412069e+02 -4.431243e+02 -2.092681e+03 
2.411953e+02 -4.431206e+02 -2.092660e+03 
2.411797e+02 -4.431212e+02 -2.092685e+03 
2.411629e+02 -4.431269e+02 -2.092663e+03 
2.411515e+02 -4.431240e+02 -2.092652e+03 
2.411420e+02 -4.431336e+02 -2.092637e+03 
2.411365e+02 -4.431451e+02 -2.092614e+03 
2.411406e+02 -4.431484e+02 -2.092630e+03 
2.411420e+02 -4.431508e+02 -2.092605e+03 
2.411533e+02 -4.431594e+02 -2.092624e+03 
2.411594e+02 -4.431677e+02 -2.092642e+03 
2.411508e+02 -4.431656e+02 -2.092582e+03 
2.411398e+02 -4.431758e+02 -2.092579e+03 
2.411347e+02 -4.431826e+02 -2.092571e+03 
2.411246e+02 -4.431806e+02 -2.092568e+03 
2.411175e+02 -4.431879e+02 -2.092570e+03 
2.411147e+02 -4.431879e+02 -2.092583e+03 
2.411157e+02 -4.431917e+02 -2.092611e+03 
2.411147e+02 -4.431975e+02 -2.092568e+03 
2.411153e+02 -4.431946e+02 -2.092599e+03 
2.411216e+02 -4.431983e+02 -2.092590e+03 
2.411187e+02 -4.431941e+02 -2.092573e+03 
2.411275e+02 -4.431950e+02 -2.092576e+03 
2.411333e+02 -4.431937e+02 -2.092580e+03 
2.411336e+02 -4.431920e+02 -2.092594e+03 
2.411323e+02 -4.431875e+02 -2.092580e+03 
2.411311e+02 -4.431915e+02 -2.092583e+03 
2.411229e+02 -4.431877e+02 -2.092557e+03 
2.411239e+02 -4.431859e+02 -2.092575e+03 
2.411102e+02 -4.431812e+02 -2.092559e+03 
2.411028e+02 -4.431833e+02 -2.092572e+03 
2.411029e+02 -4.431864e+02 -2.092593e+03 
2.411014e+02 -4.431825e+02 -2.092580e+03 
2.411001e+02 -4.431779e+02 -2.092583e+03 
2.411044e+02 -4.431827e+02 -2.092570e+03 
2.411121e+02 -4.431782e+02 -2.092584e+03 
2.411167e+02 -4.431768e+02 -2.092557e+03 
2.411223e+02 -4.431782e+02 -2.092594e+03 
2.411264e+02 -4.431774e+02 -2.092586e+03 
2.411253e+02 -4.431770e+02 -2.092573e+03 
2.411292e+02 -4.431797e+02 -2.092568e+03 
2.411279e+02 -4.431815e+02 -2.092580e+03 
2.411233e+02 -4.431791e+02 -2.092591e+03 
2.411156e+02 -4.431777e+02 -2.092581e+03 
2.411065e+02 -4.431708e+02 -2.092589e+03 

2.411009e+02 -4.431725e+02 -2.092579e+03 
2.410955e+02 -4.431706e+02 -2.092587e+03 
2.410847e+02 -4.431665e+02 -2.092574e+03 
2.410758e+02 -4.431502e+02 -2.092523e+03 
2.410684e+02 -4.431416e+02 -2.092537e+03 
2.410705e+02 -4.431386e+02 -2.092538e+03 
2.410716e+02 -4.431324e+02 -2.092548e+03 
2.410696e+02 -4.431234e+02 -2.092537e+03 
2.410544e+02 -4.431086e+02 -2.092518e+03 
2.410512e+02 -4.431051e+02 -2.092533e+03 
2.410425e+02 -4.431069e+02 -2.092495e+03 
2.410349e+02 -4.431012e+02 -2.092516e+03 
2.410370e+02 -4.430934e+02 -2.092522e+03 
2.410305e+02 -4.430934e+02 -2.092531e+03 
2.410348e+02 -4.430877e+02 -2.092522e+03 
2.410290e+02 -4.430851e+02 -2.092535e+03 
2.410304e+02 -4.430889e+02 -2.092500e+03 
2.410480e+02 -4.430846e+02 -2.092557e+03 
2.410487e+02 -4.430821e+02 -2.092550e+03 
2.410495e+02 -4.430782e+02 -2.092503e+03 
2.410592e+02 -4.430827e+02 -2.092549e+03 
2.410569e+02 -4.430837e+02 -2.092547e+03 
2.410499e+02 -4.430802e+02 -2.092528e+03 
2.410473e+02 -4.430867e+02 -2.092524e+03 
2.410391e+02 -4.430882e+02 -2.092520e+03 
2.410342e+02 -4.430901e+02 -2.092527e+03 
2.410218e+02 -4.430881e+02 -2.092485e+03 
2.410196e+02 -4.430938e+02 -2.092495e+03 
2.410174e+02 -4.430955e+02 -2.092507e+03 
2.410164e+02 -4.430936e+02 -2.092519e+03 
2.410198e+02 -4.430875e+02 -2.092516e+03 
2.410204e+02 -4.430935e+02 -2.092497e+03 
2.410203e+02 -4.430876e+02 -2.092476e+03 
2.410265e+02 -4.431016e+02 -2.092455e+03 
2.410335e+02 -4.431138e+02 -2.092464e+03 
2.410390e+02 -4.431096e+02 -2.092462e+03 
2.410367e+02 -4.431143e+02 -2.092454e+03 
2.410383e+02 -4.431182e+02 -2.092477e+03 
2.410418e+02 -4.431225e+02 -2.092473e+03 
2.410405e+02 -4.431292e+02 -2.092496e+03 
2.410294e+02 -4.431314e+02 -2.092437e+03 
2.410308e+02 -4.431288e+02 -2.092452e+03 
2.410375e+02 -4.431261e+02 -2.092478e+03 
2.410401e+02 -4.431116e+02 -2.092490e+03 
2.410668e+02 -4.430948e+02 -2.092468e+03 
2.411166e+02 -4.430886e+02 -2.092519e+03 
2.411851e+02 -4.430978e+02 -2.092548e+03 
2.413124e+02 -4.431203e+02 -2.092618e+03 
2.414708e+02 -4.431543e+02 -2.092637e+03 
2.416523e+02 -4.432028e+02 -2.092735e+03 
2.418983e+02 -4.432372e+02 -2.092749e+03 
2.422532e+02 -4.433140e+02 -2.092775e+03 
2.426692e+02 -4.434020e+02 -2.092776e+03 
2.431430e+02 -4.435324e+02 -2.092866e+03 
2.437199e+02 -4.436978e+02 -2.092983e+03 
2.443695e+02 -4.438767e+02 -2.093080e+03 
2.450732e+02 -4.440755e+02 -2.093109e+03 
2.459500e+02 -4.443151e+02 -2.093202e+03 
2.469128e+02 -4.445278e+02 -2.093249e+03 
2.480054e+02 -4.447070e+02 -2.093239e+03 
2.490933e+02 -4.448990e+02 -2.093275e+03 
2.503335e+02 -4.450890e+02 -2.093311e+03 
2.515698e+02 -4.452357e+02 -2.093353e+03 
2.529586e+02 -4.453578e+02 -2.093388e+03 
2.543221e+02 -4.454303e+02 -2.093428e+03 
2.558120e+02 -4.454627e+02 -2.093570e+03 
2.573187e+02 -4.454615e+02 -2.093739e+03 
2.587787e+02 -4.453961e+02 -2.093948e+03 
2.604150e+02 -4.452892e+02 -2.094243e+03 
2.619839e+02 -4.451037e+02 -2.094644e+03 
2.635480e+02 -4.448696e+02 -2.095090e+03 
2.652758e+02 -4.446000e+02 -2.095724e+03 
2.668919e+02 -4.442638e+02 -2.096482e+03 
2.685955e+02 -4.438602e+02 -2.097295e+03 
2.702996e+02 -4.434484e+02 -2.098198e+03 
2.721367e+02 -4.430080e+02 -2.099335e+03 
2.738091e+02 -4.425374e+02 -2.100459e+03 
2.756911e+02 -4.420008e+02 -2.101657e+03 
2.774424e+02 -4.414136e+02 -2.103089e+03 
2.793682e+02 -4.407377e+02 -2.104395e+03 
2.812824e+02 -4.400651e+02 -2.105890e+03 
2.832050e+02 -4.394029e+02 -2.107566e+03 
2.851830e+02 -4.386640e+02 -2.109080e+03 
2.872300e+02 -4.378317e+02 -2.110794e+03 
2.893867e+02 -4.369490e+02 -2.112572e+03 
2.913915e+02 -4.360073e+02 -2.114365e+03 
2.934666e+02 -4.349706e+02 -2.116093e+03 
2.954716e+02 -4.339022e+02 -2.118056e+03 
2.975772e+02 -4.327084e+02 -2.119904e+03 
2.996642e+02 -4.314479e+02 -2.121860e+03 
3.015536e+02 -4.302029e+02 -2.123904e+03 
3.036193e+02 -4.288923e+02 -2.125927e+03 
3.056977e+02 -4.275523e+02 -2.128025e+03 
3.076394e+02 -4.261526e+02 -2.130009e+03 
3.096735e+02 -4.247143e+02 -2.132175e+03 
3.118039e+02 -4.232786e+02 -2.134152e+03 
3.138469e+02 -4.217798e+02 -2.136179e+03 
3.158746e+02 -4.202529e+02 -2.138198e+03 
3.179678e+02 -4.186737e+02 -2.139948e+03 
3.200671e+02 -4.171101e+02 -2.141622e+03 
3.221987e+02 -4.154266e+02 -2.143593e+03 
3.241920e+02 -4.137081e+02 -2.145007e+03 
3.262430e+02 -4.120233e+02 -2.146864e+03 
3.283310e+02 -4.101739e+02 -2.148228e+03 
3.303281e+02 -4.083142e+02 -2.149808e+03 
3.322294e+02 -4.064276e+02 -2.151272e+03 
3.341818e+02 -4.045345e+02 -2.152937e+03 
3.360811e+02 -4.026396e+02 -2.154861e+03 
3.379129e+02 -4.006674e+02 -2.156371e+03 
3.397280e+02 -3.987291e+02 -2.158270e+03 
3.416272e+02 -3.967699e+02 -2.159979e+03 
3.434117e+02 -3.947884e+02 -2.161896e+03 
3.452027e+02 -3.928354e+02 -2.163507e+03 
3.470661e+02 -3.908658e+02 -2.165303e+03 
3.488778e+02 -3.888608e+02 -2.167061e+03 
3.507451e+02 -3.869042e+02 -2.168808e+03 
3.525742e+02 -3.849346e+02 -2.170344e+03 
3.543853e+02 -3.829246e+02 -2.171952e+03 
3.562516e+02 -3.810032e+02 -2.173603e+03 
3.580570e+02 -3.790308e+02 -2.175215e+03 
3.598336e+02 -3.769248e+02 -2.176413e+03 
3.616154e+02 -3.749856e+02 -2.178008e+03 
3.632583e+02 -3.729197e+02 -2.179462e+03 
3.649177e+02 -3.708444e+02 -2.180743e+03 
3.665639e+02 -3.686869e+02 -2.181916e+03 
3.681473e+02 -3.665508e+02 -2.183234e+03 
3.696609e+02 -3.643853e+02 -2.184450e+03 
3.710601e+02 -3.621296e+02 -2.185572e+03 
3.724368e+02 -3.598854e+02 -2.186757e+03 
3.737795e+02 -3.575988e+02 -2.187898e+03 
3.752148e+02 -3.552849e+02 -2.188969e+03 
3.764877e+02 -3.529655e+02 -2.190191e+03 
3.776847e+02 -3.506564e+02 -2.191316e+03 
3.789821e+02 -3.483473e+02 -2.192520e+03 
3.801722e+02 -3.460109e+02 -2.193917e+03 
3.814534e+02 -3.437527e+02 -2.195091e+03 
3.826162e+02 -3.413875e+02 -2.196301e+03 
3.838407e+02 -3.391031e+02 -2.197640e+03 
3.850756e+02 -3.368264e+02 -2.198747e+03 
3.862594e+02 -3.344823e+02 -2.199914e+03 
3.874606e+02 -3.322259e+02 -2.201194e+03 
3.885510e+02 -3.298817e+02 -2.202146e+03 
3.897303e+02 -3.275208e+02 -2.203136e+03 
3.908684e+02 -3.252007e+02 -2.204370e+03 
3.917990e+02 -3.227924e+02 -2.205185e+03 
3.928651e+02 -3.203921e+02 -2.206201e+03 
3.938864e+02 -3.179556e+02 -2.207029e+03 
3.947639e+02 -3.155163e+02 -2.207915e+03 
3.956018e+02 -3.130725e+02 -2.208689e+03 
3.964707e+02 -3.105855e+02 -2.209582e+03 
3.972712e+02 -3.080468e+02 -2.210234e+03 
3.980548e+02 -3.055617e+02 -2.211102e+03 
3.987474e+02 -3.030134e+02 -2.211809e+03 
3.994234e+02 -3.004727e+02 -2.212433e+03 
4.001069e+02 -2.978631e+02 -2.213167e+03 
4.007483e+02 -2.952976e+02 -2.213694e+03 
4.013500e+02 -2.926421e+02 -2.214285e+03 
4.017952e+02 -2.899852e+02 -2.214889e+03 
4.022969e+02 -2.872930e+02 -2.215394e+03 
4.027650e+02 -2.845619e+02 -2.215667e+03 
4.031241e+02 -2.818589e+02 -2.216229e+03 
4.035551e+02 -2.790622e+02 -2.216511e+03 
4.037855e+02 -2.762532e+02 -2.216927e+03 
4.041614e+02 -2.734061e+02 -2.217264e+03 
4.044406e+02 -2.705258e+02 -2.217575e+03 
4.046119e+02 -2.676859e+02 -2.217901e+03 
4.048614e+02 -2.647540e+02 -2.218058e+03 
4.051144e+02 -2.618603e+02 -2.218553e+03 
4.052106e+02 -2.589376e+02 -2.218907e+03 
4.052735e+02 -2.559719e+02 -2.219141e+03 
4.054035e+02 -2.530180e+02 -2.219362e+03 
4.055604e+02 -2.500201e+02 -2.219582e+03 
4.056730e+02 -2.470209e+02 -2.219794e+03 
4.057380e+02 -2.440105e+02 -2.219926e+03 
4.057521e+02 -2.409684e+02 -2.220077e+03 
4.057536e+02 -2.379513e+02 -2.220294e+03 
4.057356e+02 -2.348813e+02 -2.220384e+03 
4.056878e+02 -2.317770e+02 -2.220401e+03 
4.056352e+02 -2.286627e+02 -2.220500e+03 
4.055597e+02 -2.255483e+02 -2.220487e+03 
4.054974e+02 -2.224296e+02 -2.220600e+03 
4.053753e+02 -2.192341e+02 -2.220644e+03 
4.051622e+02 -2.160480e+02 -2.220503e+03 
4.049283e+02 -2.128131e+02 -2.220399e+03 
4.047191e+02 -2.095967e+02 -2.220451e+03 
4.045540e+02 -2.063169e+02 -2.220330e+03 
4.043614e+02 -2.030147e+02 -2.220210e+03 
4.040277e+02 -1.996591e+02 -2.219899e+03 
4.036776e+02 -1.963298e+02 -2.219792e+03 
4.033896e+02 -1.929543e+02 -2.219540e+03 
4.029366e+02 -1.895259e+02 -2.219231e+03 
4.025728e+02 -1.860942e+02 -2.219019e+03 
4.022025e+02 -1.826215e+02 -2.218831e+03 
4.017409e+02 -1.791527e+02 -2.218481e+03 
4.012933e+02 -1.756374e+02 -2.217988e+03 
4.007839e+02 -1.721682e+02 -2.217614e+03 
4.004126e+02 -1.686300e+02 -2.217063e+03 
3.998888e+02 -1.651413e+02 -2.216540e+03 
3.995452e+02 -1.615735e+02 -2.216180e+03 
3.989525e+02 -1.580156e+02 -2.215499e+03 
3.985321e+02 -1.544448e+02 -2.215046e+03 
3.979364e+02 -1.508635e+02 -2.214407e+03 
3.974945e+02 -1.472532e+02 -2.213899e+03 
3.969422e+02 -1.436658e+02 -2.213309e+03 
3.964108e+02 -1.400402e+02 -2.212726e+03 
3.958845e+02 -1.364277e+02 -2.212061e+03 
3.953364e+02 -1.328021e+02 -2.211579e+03 
3.948022e+02 -1.291850e+02 -2.211000e+03 
3.941987e+02 -1.255633e+02 -2.210509e+03 
3.935770e+02 -1.219227e+02 -2.209938e+03 
3.930587e+02 -1.182908e+02 -2.209486e+03 
3.924321e+02 -1.146529e+02 -2.208862e+03 
3.917928e+02 -1.110152e+02 -2.208388e+03 
3.911742e+02 -1.073778e+02 -2.207783e+03 
3.905280e+02 -1.037437e+02 -2.207212e+03 
3.898705e+02 -1.000716e+02 -2.206648e+03 
3.891706e+02 -9.642325e+01 -2.206034e+03 
3.885134e+02 -9.273575e+01 -2.205342e+03 
3.878662e+02 -8.906683e+01 -2.204603e+03 
3.872169e+02 -8.537829e+01 -2.203924e+03 
3.865367e+02 -8.173209e+01 -2.203205e+03 
3.857709e+02 -7.806594e+01 -2.202318e+03 
3.850213e+02 -7.442082e+01 -2.201585e+03 
3.843085e+02 -7.080284e+01 -2.200681e+03 
3.836193e+02 -6.720911e+01 -2.199987e+03 
3.829131e+02 -6.366042e+01 -2.199087e+03 
3.822175e+02 -6.016671e+01 -2.198279e+03 
3.815307e+02 -5.668094e+01 -2.197648e+03 
3.807493e+02 -5.327794e+01 -2.196788e+03 
3.799868e+02 -4.990032e+01 -2.195931e+03 
3.792376e+02 -4.657855e+01 -2.195004e+03 
3.784727e+02 -4.332771e+01 -2.194092e+03 
3.777533e+02 -4.007126e+01 -2.193297e+03 
3.770161e+02 -3.687127e+01 -2.192381e+03 
3.761521e+02 -3.369757e+01 -2.191377e+03 
3.753117e+02 -3.054808e+01 -2.190379e+03 
3.745067e+02 -2.741829e+01 -2.189444e+03 
3.736846e+02 -2.431100e+01 -2.188498e+03 
3.728406e+02 -2.121394e+01 -2.187258e+03 
3.720096e+02 -1.812781e+01 -2.186270e+03 
3.711814e+02 -1.507718e+01 -2.185158e+03 
3.703286e+02 -1.206659e+01 -2.184187e+03 
3.694261e+02 -9.118937e+00 -2.183123e+03 
3.685166e+02 -6.223170e+00 -2.181966e+03 
3.676138e+02 -3.344838e+00 -2.181024e+03 
3.666919e+02 -6.198361e-01 -2.179905e+03 
3.658296e+02 2.139618e+00 -2.178928e+03 
3.648322e+02 4.806481e+00 -2.177759e+03 
3.638866e+02 7.460315e+00 -2.176781e+03 
3.629180e+02 1.008265e+01 -2.175665e+03 
3.619152e+02 1.263597e+01 -2.174497e+03 
3.609908e+02 1.524447e+01 -2.173560e+03 
3.598914e+02 1.780026e+01 -2.172250e+03 
3.587825e+02 2.037416e+01 -2.171147e+03 
3.577510e+02 2.298608e+01 -2.170075e+03 
3.566947e+02 2.557793e+01 -2.168817e+03 
3.555691e+02 2.813279e+01 -2.167563e+03 
3.545506e+02 3.079455e+01 -2.166479e+03 
3.534147e+02 3.337002e+01 -2.165171e+03 
3.522516e+02 3.590888e+01 -2.163692e+03 
3.511745e+02 3.844251e+01 -2.162633e+03 
3.499252e+02 4.091793e+01 -2.161319e+03 
3.488152e+02 4.332530e+01 -2.160192e+03 
3.475980e+02 4.560645e+01 -2.158750e+03 
3.465383e+02 4.784557e+01 -2.157704e+03 
3.453920e+02 4.996719e+01 -2.156406e+03 
3.441982e+02 5.196299e+01 -2.155088e+03 
3.429916e+02 5.397820e+01 -2.153961e+03 
3.418138e+02 5.590840e+01 -2.152638e+03 
3.406300e+02 5.783303e+01 -2.151546e+03 
3.393815e+02 5.972656e+01 -2.150136e+03 
3.381229e+02 6.162568e+01 -2.148804e+03 
3.370162e+02 6.354077e+01 -2.147499e+03 
3.357365e+02 6.545399e+01 -2.146106e+03 
3.345729e+02 6.738953e+01 -2.144722e+03 
3.332757e+02 6.936972e+01 -2.143263e+03 
3.320635e+02 7.130708e+01 -2.141942e+03 
3.307845e+02 7.325377e+01 -2.140715e+03 
3.294899e+02 7.514075e+01 -2.139225e+03 
3.282295e+02 7.696834e+01 -2.137846e+03 
3.269561e+02 7.880271e+01 -2.136779e+03 
3.256385e+02 8.055762e+01 -2.135489e+03 
3.243232e+02 8.229212e+01 -2.134162e+03 
3.229699e+02 8.398759e+01 -2.133010e+03 
3.216636e+02 8.567155e+01 -2.131713e+03 
3.203564e+02 8.731008e+01 -2.130495e+03 
3.191035e+02 8.898047e+01 -2.129326e+03 
3.177880e+02 9.063952e+01 -2.128125e+03 
3.165211e+02 9.224483e+01 -2.126735e+03 
3.153215e+02 9.386471e+01 -2.125506e+03 
3.140297e+02 9.546597e+01 -2.124192e+03 
3.128213e+02 9.702692e+01 -2.122886e+03 
3.116291e+02 9.857020e+01 -2.121618e+03 
3.103958e+02 1.000824e+02 -2.120356e+03 
3.091970e+02 1.015169e+02 -2.119301e+03 
3.079224e+02 1.029310e+02 -2.117995e+03 
3.067086e+02 1.042726e+02 -2.116914e+03 
3.054694e+02 1.056109e+02 -2.115745e+03 
3.042186e+02 1.069114e+02 -2.114730e+03 
3.029420e+02 1.081929e+02 -2.113740e+03 
3.016450e+02 1.094435e+02 -2.112605e+03 
3.004336e+02 1.107180e+02 -2.111667e+03 
2.992187e+02 1.119795e+02 -2.110820e+03 
2.980095e+02 1.131878e+02 -2.109758e+03 
2.967860e+02 1.144196e+02 -2.108742e+03 
2.955221e+02 1.156389e+02 -2.107866e+03 
2.942309e+02 1.167727e+02 -2.106910e+03 
2.931221e+02 1.178765e+02 -2.106167e+03 
2.919215e+02 1.189582e+02 -2.105434e+03 
2.907169e+02 1.199963e+02 -2.104630e+03 
2.894900e+02 1.209874e+02 -2.103925e+03 
2.882809e+02 1.219661e+02 -2.103097e+03 
2.871152e+02 1.229599e+02 -2.102421e+03 
2.859862e+02 1.239481e+02 -2.101782e+03 
2.848357e+02 1.248849e+02 -2.101037e+03 
2.837070e+02 1.258129e+02 -2.100397e+03 
2.826261e+02 1.267401e+02 -2.099769e+03 
2.815376e+02 1.276365e+02 -2.099140e+03 
2.804285e+02 1.285271e+02 -2.098414e+03 
2.793849e+02 1.293574e+02 -2.097766e+03 
2.783626e+02 1.302117e+02 -2.097059e+03 
2.773581e+02 1.310787e+02 -2.096499e+03 
2.763305e+02 1.319589e+02 -2.095938e+03 
2.753231e+02 1.328581e+02 -2.095336e+03 
2.743948e+02 1.337641e+02 -2.094804e+03 
2.734809e+02 1.347297e+02 -2.094393e+03 
2.725686e+02 1.356667e+02 -2.093945e+03 
2.716681e+02 1.366061e+02 -2.093417e+03 
2.708043e+02 1.375364e+02 -2.093033e+03 
2.699831e+02 1.384206e+02 -2.092574e+03 
2.691752e+02 1.392347e+02 -2.092273e+03 
2.683757e+02 1.400201e+02 -2.091921e+03 
2.675930e+02 1.407806e+02 -2.091688e+03 
2.668084e+02 1.414965e+02 -2.091442e+03 
2.660471e+02 1.421085e+02 -2.091206e+03 
2.653137e+02 1.426736e+02 -2.091082e+03 
2.645509e+02 1.431837e+02 -2.090990e+03 
2.637939e+02 1.436308e+02 -2.090944e+03 
2.630753e+02 1.440216e+02 -2.090865e+03 
2.623537e+02 1.444089e+02 -2.090875e+03 
2.616577e+02 1.447464e+02 -2.090896e+03 
2.610074e+02 1.451052e+02 -2.090982e+03 
2.603624e+02 1.454418e+02 -2.091073e+03 
2.597054e+02 1.457882e+02 -2.091105e+03 
2.591209e+02 1.461650e+02 -2.091258e+03 
2.585397e+02 1.465442e+02 -2.091255e+03 
2.579982e+02 1.469567e+02 -2.091430e+03 
2.575014e+02 1.473891e+02 -2.091568e+03 
2.570265e+02 1.478077e+02 -2.091757e+03 
2.565667e+02 1.482602e+02 -2.091929e+03 
2.561394e+02 1.487155e+02 -2.092112e+03 
2.557260e+02 1.491459e+02 -2.092232e+03 
2.553010e+02 1.495746e+02 -2.092302e+03 
2.549068e+02 1.499480e+02 -2.092486e+03 
2.545277e+02 1.503069e+02 -2.092485e+03 
2.542363e+02 1.507229e+02 -2.092607e+03 
2.539553e+02 1.511736e+02 -2.092728e+03 
2.536650e+02 1.515638e+02 -2.092894e+03 
2.533836e+02 1.519122e+02 -2.093057e+03 
2.531030e+02 1.522125e+02 -2.093250e+03 
2.528131e+02 1.524809e+02 -2.093401e+03 
2.525315e+02 1.527012e+02 -2.093589e+03 
2.522629e+02 1.528967e+02 -2.093850e+03 
2.520729e+02 1.530483e+02 -2.093964e+03 
2.519179e+02 1.531889e+02 -2.093978e+03 
2.517666e+02 1.533739e+02 -2.094036e+03 
2.515598e+02 1.535907e+02 -2.094182e+03 
2.512773e+02 1.538706e+02 -2.094361e+03 
2.510485e+02 1.541550e+02 -2.094539e+03 
2.509498e+02 1.544172e+02 -2.094541e+03 
2.510142e+02 1.547085e+02 -2.094414e+03 
2.509336e+02 1.550728e+02 -2.094395e+03 
2.508655e+02 1.554393e+02 -2.094453e+03 
2.508311e+02 1.557324e+02 -2.094411e+03 
2.508481e+02 1.560455e+02 -2.094417e+03 
2.507735e+02 1.563351e+02 -2.094385e+03 
2.507919e+02 1.565640e+02 -2.094430e+03 
2.507983e+02 1.567259e+02 -2.094419e+03 
2.507705e+02 1.568567e+02 -2.094423e+03 
2.507900e+02 1.569232e+02 -2.094418e+03 
2.507988e+02 1.569552e+02 -2.094448e+03 
2.508111e+02 1.569591e+02 -2.094456e+03 
2.508193e+02 1.569584e+02 -2.094470e+03 
2.508266e+02 1.569521e+02 -2.094499e+03 
2.508335e+02 1.569507e+02 -2.094488e+03 
2.508232e+02 1.569540e+02 -2.094509e+03 
2.508089e+02 1.569598e+02 -2.094499e+03 
2.507866e+02 1.569728e+02 -2.094488e+03 
2.507621e+02 1.569774e+02 -2.094455e+03 
2.507250e+02 1.569934e+02 -2.094454e+03 
2.506945e+02 1.570118e+02 -2.094442e+03 
2.506732e+02 1.570243e+02 -2.094410e+03 
2.506624e+02 1.570351e+02 -2.094409e+03 
2.506577e+02 1.570513e+02 -2.094427e+03 
2.506537e+02 1.570562e+02 -2.094404e+03 
2.506522e+02 1.570577e+02 -2.094417e+03 
2.506552e+02 1.570614e+02 -2.094405e+03 
2.506586e+02 1.570670e+02 -2.094431e+03 
2.506627e+02 1.570675e+02 -2.094427e+03 
2.506620e+02 1.570679e+02 -2.094421e+03 
2.506639e+02 1.570695e+02 -2.094425e+03 
2.506604e+02 1.570757e+02 -2.094445e+03 
2.506653e+02 1.570767e+02 -2.094453e+03 
2.506647e+02 1.570775e+02 -2.094462e+03 
2.506659e+02 1.570754e+02 -2.094459e+03 
2.506703e+02 1.570756e+02 -2.094458e+03 
2.506793e+02 1.570759e+02 -2.094466e+03 
2.506745e+02 1.570774e+02 -2.094469e+03 
2.506887e+02 1.570795e+02 -2.094475e+03 
2.506931e+02 1.570773e+02 -2.094470e+03 
2.506966e+02 1.570766e+02 -2.094475e+03 
2.506976e+02 1.570736e+02 -2.094478e+03 
2.507044e+02 1.570762e+02 -2.094486e+03 
2.507024e+02 1.570773e+02 -2.094489e+03 
2.507040e+02 1.570772e+02 -2.094490e+03 
2.506971e+02 1.570761e+02 -2.094488e+03 
2.506965e+02 1.570788e+02 -2.094510e+03 
2.506946e+02 1.570794e+02 -2.094511e+03 
2.506944e+02 1.570772e+02 -2.094500e+03 
2.506927e+02 1.570770e+02 -2.094527e+03 
2.506942e+02 1.570744e+02 -2.094516e+03 
2.506936e+02 1.570717e+02 -2.094519e+03 
2.506978e+02 1.570659e+02 -2.094520e+03 
2.506946e+02 1.570632e+02 -2.094529e+03 
2.506952e+02 1.570597e+02 -2.094523e+03 
2.506891e+02 1.570612e+02 -2.094523e+03 
2.506946e+02 1.570581e+02 -2.094522e+03 
2.506892e+02 1.570530e+02 -2.094505e+03 
2.506752e+02 1.570527e+02 -2.094510e+03 
2.506636e+02 1.570526e+02 -2.094511e+03 
2.506619e+02 1.570522e+02 -2.094512e+03 
2.506520e+02 1.570506e+02 -2.094494e+03 
2.506449e+02 1.570491e+02 -2.094471e+03 
2.506441e+02 1.570485e+02 -2.094491e+03 
2.506456e+02 1.570510e+02 -2.094489e+03 
2.506435e+02 1.570509e+02 -2.094492e+03 
2.506448e+02 1.570522e+02 -2.094491e+03 
2.506496e+02 1.570536e+02 -2.094512e+03 
2.506519e+02 1.570508e+02 -2.094486e+03 
2.506562e+02 1.570518e+02 -2.094483e+03 
2.506606e+02 1.570532e+02 -2.094490e+03 
2.506650e+02 1.570563e+02 -2.094500e+03 
2.506557e+02 1.570605e+02 -2.094490e+03 
2.506603e+02 1.570596e+02 -2.094484e+03 
2.506604e+02 1.570601e+02 -2.094494e+03 
2.506584e+02 1.570627e+02 -2.094498e+03 
2.506619e+02 1.570655e+02 -2.094511e+03 
2.506571e+02 1.570661e+02 -2.094494e+03 
2.506577e+02 1.570669e+02 -2.094501e+03 
2.506625e+02 1.570685e+02 -2.094496e+03 
2.506629e+02 1.570674e+02 -2.094509e+03 
2.506697e+02 1.570659e+02 -2.094496e+03 
2.506739e+02 1.570683e+02 -2.094507e+03 
2.506811e+02 1.570688e+02 -2.094515e+03 
2.506845e+02 1.570697e+02 -2.094526e+03 
2.506921e+02 1.570669e+02 -2.094525e+03 
2.506964e+02 1.570637e+02 -2.094522e+03 
2.506997e+02 1.570560e+02 -2.094507e+03 
2.507042e+02 1.570572e+02 -2.094515e+03 
2.507005e+02 1.570550e+02 -2.094525e+03 
2.507074e+02 1.570576e+02 -2.094532e+03 
2.507074e+02 1.570462e+02 -2.094526e+03 
2.507070e+02 1.570397e+02 -2.094519e+03 
2.507182e+02 1.570343e+02 -2.094542e+03 
2.507268e+02 1.570203e+02 -2.094541e+03 
2.507377e+02 1.570101e+02 -2.094557e+03 
2.507395e+02 1.569990e+02 -2.094554e+03 
2.507509e+02 1.569944e+02 -2.094575e+03 
2.507500e+02 1.569925e+02 -2.094567e+03 
2.507453e+02 1.569846e+02 -2.094566e+03 
2.507509e+02 1.569869e+02 -2.094572e+03 
2.507485e+02 1.569823e+02 -2.094570e+03 
2.507453e+02 1.569812e+02 -2.094583e+03 
2.507533e+02 1.569817e+02 -2.094574e+03 
2.507554e+02 1.569760e+02 -2.094563e+03 
2.507594e+02 1.569805e+02 -2.094590e+03 
2.507622e+02 1.569759e+02 -2.094577e+03 
2.507631e+02 1.569789e+02 -2.094566e+03 
2.507676e+02 1.569772e+02 -2.094580e+03 
2.507660e+02 1.569752e+02 -2.094577e+03 
2.507633e+02 1.569746e+02 -2.094597e+03 
2.507630e+02 1.569693e+02 -2.094575e+03 
2.507645e+02 1.569697e+02 -2.094589e+03 
2.507636e+02 1.569666e+02 -2.094580e+03 
2.507605e+02 1.569660e+02 -2.094578e+03 
2.507614e+02 1.569660e+02 -2.094585e+03 
2.507614e+02 1.569628e+02 -2.094589e+03 
2.507554e+02 1.569641e+02 -2.094585e+03 
2.507641e+02 1.569667e+02 -2.094590e+03 
2.507680e+02 1.569694e+02 -2.094587e+03 
2.507635e+02 1.569697e+02 -2.094589e+03 
2.507637e+02 1.569694e+02 -2.094589e+03 
2.507690e+02 1.569735e+02 -2.094596e+03 
2.507659e+02 1.569731e+02 -2.094589e+03 
2.507607e+02 1.569720e+02 -2.094585e+03 
2.507702e+02 1.569720e+02 -2.094583e+03 
2.507605e+02 1.569680e+02 -2.094586e+03 
2.507581e+02 1.569682e+02 -2.094597e+03 
2.507704e+02 1.569649e+02 -2.094592e+03 
2.507638e+02 1.569628e+02 -2.094597e+03 
2.507770e+02 1.569655e+02 -2.094600e+03 
2.507810e+02 1.569641e+02 -2.094588e+03 
2.507844e+02 1.569625e+02 -2.094606e+03 
2.507818e+02 1.569645e+02 -2.094590e+03 
2.507841e+02 1.569667e+02 -2.094589e+03 
2.507863e+02 1.569706e+02 -2.094608e+03 
2.507759e+02 1.569684e+02 -2.094599e+03 
2.507785e+02 1.569738e+02 -2.094588e+03 
2.507743e+02 1.569738e+02 -2.094591e+03 
2.507629e+02 1.569722e+02 -2.094588e+03 
2.507635e+02 1.569753e+02 -2.094580e+03 
2.507567e+02 1.569745e+02 -2.094595e+03 
2.507517e+02 1.569767e+02 -2.094597e+03 
2.507541e+02 1.569705e+02 -2.094592e+03 
2.507608e+02 1.569709e+02 -2.094593e+03 
2.507591e+02 1.569667e+02 -2.094592e+03 
2.507572e+02 1.569635e+02 -2.094578e+03 
2.507713e+02 1.569630e+02 -2.094587e+03 
2.507671e+02 1.569582e+02 -2.094594e+03 
2.507718e+02 1.569558e+02 -2.094594e+03 
2.507680e+02 1.569532e+02 -2.094598e+03 
