2.404977e+02 -4.590513e+02 -2.091915e+03 
2.404958e+02 -4.590572e+02 -2.091953e+03 
2.404898e+02 -4.590482e+02 -2.091924e+03 
2.404994e+02 -4.590523e+02 -2.091943e+03 
2.404909e+02 -4.590536e+02 -2.091939e+03 
2.404834e+02 -4.590506e+02 -2.091945e+03 
2.404823e+02 -4.590490e+02 -2.091938e+03 
2.404744e+02 -4.590482e+02 -2.091945e+03 
2.404810e+02 -4.590481e+02 -2.091974e+03 
2.404767e+02 -4.590419e+02 -2.091925e+03 
2.404710e+02 -4.590480e+02 -2.091948e+03 
2.404749e+02 -4.590460e+02 -2.091943e+03 
2.404700e+02 -4.590468e+02 -2.091939e+03 
2.404745e+02 -4.590484e+02 -2.091934e+03 
2.404783e+02 -4.590515e+02 -2.091953e+03 
2.404814e+02 -4.590514e+02 -2.091967e+03 
2.404766e+02 -4.590510e+02 -2.091926e+03 
2.404815e+02 -4.590500e+02 -2.091945e+03 
2.404777e+02 -4.590480e+02 -2.091937e+03 
2.404638e+02 -4.590477e+02 -2.091914e+03 
2.404611e+02 -4.590497e+02 -2.091930e+03 
2.404558e+02 -4.590517e+02 -2.091922e+03 
2.404496e+02 -4.590475e+02 -2.091940e+03 
2.404307e+02 -4.590412e+02 -2.091913e+03 
2.404131e+02 -4.590400e+02 -2.091870e+03 
2.404123e+02 -4.590364e+02 -2.091906e+03 
2.403988e+02 -4.590328e+02 -2.091883e+03 
2.404012e+02 -4.590284e+02 -2.091885e+03 
2.403885e+02 -4.590276e+02 -2.091857e+03 
2.403705e+02 -4.590326e+02 -2.091863e+03 
2.403402e+02 -4.590309e+02 -2.091831e+03 
2.403163e+02 -4.590308e+02 -2.091809e+03 
2.403008e+02 -4.590309e+02 -2.091793e+03 
2.402772e+02 -4.590385e+02 -2.091788e+03 
2.402641e+02 -4.590430e+02 -2.091799e+03 
2.402494e+02 -4.590348e+02 -2.091758e+03 
2.402532e+02 -4.590397e+02 -2.091786e+03 
2.402363e+02 -4.590468e+02 -2.091784e+03 
2.402079e+02 -4.590507e+02 -2.091732e+03 
2.401891e+02 -4.590466e+02 -2.091705e+03 
2.401737e+02 -4.590432e+02 -2.091696e+03 
2.401555e+02 -4.590529e+02 -2.091683e+03 
2.401344e+02 -4.590492e+02 -2.091657e+03 
2.401140e+02 -4.590506e+02 -2.091659e+03 
2.401019e+02 -4.590509e+02 -2.091639e+03 
2.400849e+02 -4.590478e+02 -2.091628e+03 
2.400806e+02 -4.590539e+02 -2.091622e+03 
2.400651e+02 -4.590493e+02 -2.091616e+03 
2.400595e+02 -4.590511e+02 -2.091625e+03 
2.400533e+02 -4.590504e+02 -2.091603e+03 
2.400504e+02 -4.590554e+02 -2.091609e+03 
2.400386e+02 -4.590583e+02 -2.091580e+03 
2.400374e+02 -4.590506e+02 -2.091575e+03 
2.400220e+02 -4.590507e+02 -2.091573e+03 
2.400123e+02 -4.590514e+02 -2.091538e+03 
2.400191e+02 -4.590463e+02 -2.091558e+03 
2.400157e+02 -4.590570e+02 -2.091567e+03 
2.400161e+02 -4.590478e+02 -2.091559e+03 
2.400139e+02 -4.590493e+02 -2.091573e+03 
2.400092e+02 -4.590431e+02 -2.091527e+03 
2.400082e+02 -4.590466e+02 -2.091561e+03 
2.400079e+02 -4.590482e+02 -2.091577e+03 
2.400154e+02 -4.590438e+02 -2.091580e+03 
2.400107e+02 -4.590406e+02 -2.091572e+03 
2.400146e+02 -4.590491e+02 -2.091565e+03 
2.400177e+02 -4.590397e+02 -2.091553e+03 
2.400150e+02 -4.590389e+02 -2.091530e+03 
2.400236e+02 -4.590420e+02 -2.091542e+03 
2.400283e+02 -4.590439e+02 -2.091590e+03 
2.400233e+02 -4.590408e+02 -2.091571e+03 
2.400296e+02 -4.590392e+02 -2.091577e+03 
2.400267e+02 -4.590175e+02 -2.091585e+03 
2.400258e+02 -4.590045e+02 -2.091565e+03 
2.400362e+02 -4.589901e+02 -2.091591e+03 
2.400437e+02 -4.589698e+02 -2.091611e+03 
2.400436e+02 -4.589419e+02 -2.091615e+03 
2.400543e+02 -4.589254e+02 -2.091613e+03 
2.400596e+02 -4.589022e+02 -2.091613e+03 
2.400766e+02 -4.588908e+02 -2.091658e+03 

2.400886e+02 -4.588629e+02 -2.091653e+03 
2.401047e+02 -4.588421e+02 -2.091657e+03 
2.401075e+02 -4.588216e+02 -2.091663e+03 
2.401201e+02 -4.588009e+02 -2.091655e+03 
2.401134e+02 -4.587916e+02 -2.091662e+03 
2.401200e+02 -4.587867e+02 -2.091662e+03 
2.401225e+02 -4.587747e+02 -2.091684e+03 
2.401315e+02 -4.587658e+02 -2.091664e+03 
2.401342e+02 -4.587561e+02 -2.091638e+03 
2.401447e+02 -4.587547e+02 -2.091679e+03 
2.401457e+02 -4.587530e+02 -2.091674e+03 
2.401471e+02 -4.587413e+02 -2.091674e+03 
2.401590e+02 -4.587389e+02 -2.091667e+03 
2.401647e+02 -4.587354e+02 -2.091682e+03 
2.401737e+02 -4.587291e+02 -2.091674e+03 
2.401792e+02 -4.587166e+02 -2.091669e+03 
2.401834e+02 -4.587077e+02 -2.091679e+03 
2.401908e+02 -4.586986e+02 -2.091670e+03 
2.402029e+02 -4.586857e+02 -2.091669e+03 
2.402141e+02 -4.586711e+02 -2.091683e+03 
2.402295e+02 -4.586435e+02 -2.091690e+03 
2.402540e+02 -4.586081e+02 -2.091720e+03 
2.402746e+02 -4.585681e+02 -2.091679e+03 
2.403091e+02 -4.585329e+02 -2.091733e+03 
2.403400e+02 -4.584857e+02 -2.091760e+03 
2.403751e+02 -4.584291e+02 -2.091770e+03 
2.403964e+02 -4.583569e+02 -2.091820e+03 
2.404011e+02 -4.582502e+02 -2.091835e+03 
2.403845e+02 -4.580981e+02 -2.091792e+03 
2.403568e+02 -4.578998e+02 -2.091691e+03 
2.403650e+02 -4.577102e+02 -2.091636e+03 
2.403851e+02 -4.574635e+02 -2.091548e+03 
2.403869e+02 -4.571644e+02 -2.091334e+03 
2.404156e+02 -4.568621e+02 -2.091196e+03 
2.404753e+02 -4.564803e+02 -2.090921e+03 
2.405823e+02 -4.560107e+02 -2.090413e+03 
2.408231e+02 -4.555302e+02 -2.089803e+03 
2.410923e+02 -4.550469e+02 -2.089120e+03 
2.414529e+02 -4.545230e+02 -2.088285e+03 
2.419084e+02 -4.539438e+02 -2.087287e+03 
2.425005e+02 -4.533783e+02 -2.086357e+03 
2.432043e+02 -4.527069e+02 -2.085267e+03 
2.440413e+02 -4.519255e+02 -2.084123e+03 
2.450006e+02 -4.510510e+02 -2.082821e+03 
2.460636e+02 -4.501023e+02 -2.081503e+03 
2.471323e+02 -4.490269e+02 -2.080152e+03 
2.483693e+02 -4.479333e+02 -2.078885e+03 
2.494272e+02 -4.467582e+02 -2.077420e+03 
-3.697314e+28 -3.697314e+28 -3.697314e+28 
2.516448e+02 -4.442116e+02 -2.074992e+03 
-3.697314e+28 -3.697314e+28 -3.697314e+28 
-3.697314e+28 -3.697314e+28 -3.697314e+28 
-3.697314e+28 -3.697314e+28 -3.697314e+28 
-3.697314e+28 -3.697314e+28 -3.697314e+28 
-3.697314e+28 -3.697314e+28 -3.697314e+28 
-3.697314e+28 -3.697314e+28 -3.697314e+28 
-3.697314e+28 -3.697314e+28 -3.697314e+28 
-3.697314e+28 -3.697314e+28 -3.697314e+28 
-3.697314e+28 -3.697314e+28 -3.697314e+28 
-3.697314e+28 -3.697314e+28 -3.697314e+28 
-3.697314e+28 -3.697314e+28 -3.697314e+28 
-3.697314e+28 -3.697314e+28 -3.697314e+28 
-3.697314e+28 -3.697314e+28 -3.697314e+28 
-3.697314e+28 -3.697314e+28 -3.697314e+28 
-3.697314e+28 -3.697314e+28 -3.697314e+28 
-3.697314e+28 -3.697314e+28 -3.697314e+28 
-3.697314e+28 -3.697314e+28 -3.697314e+28 
-3.697314e+28 -3.697314e+28 -3.697314e+28 
-3.697314e+28 -3.697314e+28 -3.697314e+28 
-3.697314e+28 -3.697314e+28 -3.697314e+28 
-3.697314e+28 -3.697314e+28 -3.697314e+28 
-3.697314e+28 -3.697314e+28 -3.697314e+28 
-3.697314e+28 -3.697314e+28 -3.697314e+28 
-3.697314e+28 -3.697314e+28 -3.697314e+28 
-3.697314e+28 -3.697314e+28 -3.697314e+28 
-3.697314e+28 -3.697314e+28 -3.697314e+28 
-3.697314e+28 -3.697314e+28 -3.697314e+28 
2.496231e+02 -3.690432e+02 -2.058911e+03 
2.487174e+02 -3.645818e+02 -2.058382e+03 
2.478612e+02 -3.599734e+02 -2.057941e+03 
2.466669e+02 -3.553322e+02 -2.057504e+03 
2.458015e+02 -3.506268e+02 -2.057707e+03 
2.445923e+02 -3.459085e+02 -2.057285e+03 
2.438025e+02 -3.409484e+02 -2.057059e+03 
2.426990e+02 -3.360394e+02 -2.056789e+03 
2.417257e+02 -3.310603e+02 -2.056543e+03 
2.409648e+02 -3.260363e+02 -2.056120e+03 
2.401487e+02 -3.210123e+02 -2.055681e+03 
2.393925e+02 -3.158162e+02 -2.055417e+03 
2.387055e+02 -3.106544e+02 -2.055016e+03 
2.381522e+02 -3.054312e+02 -2.054891e+03 
2.376502e+02 -3.000902e+02 -2.054165e+03 
2.372160e+02 -2.947839e+02 -2.053853e+03 
2.367537e+02 -2.893309e+02 -2.053393e+03 
2.364180e+02 -2.838454e+02 -2.053225e+03 
2.360649e+02 -2.783204e+02 -2.052534e+03 
2.357402e+02 -2.728381e+02 -2.052213e+03 
2.354472e+02 -2.672771e+02 -2.051866e+03 
2.352071e+02 -2.616743e+02 -2.051561e+03 
2.348510e+02 -2.560449e+02 -2.051178e+03 
2.345578e+02 -2.504176e+02 -2.051090e+03 
2.342980e+02 -2.447039e+02 -2.050781e+03 
2.339405e+02 -2.389769e+02 -2.050695e+03 
2.335990e+02 -2.332391e+02 -2.050297e+03 
2.333700e+02 -2.274393e+02 -2.050191e+03 
2.330317e+02 -2.215840e+02 -2.049922e+03 
2.327879e+02 -2.156959e+02 -2.049868e+03 
2.326243e+02 -2.097842e+02 -2.049643e+03 
2.324530e+02 -2.038929e+02 -2.049705e+03 
2.322440e+02 -1.979805e+02 -2.049538e+03 
2.320903e+02 -1.920938e+02 -2.049510e+03 
2.319479e+02 -1.861704e+02 -2.049402e+03 
2.319057e+02 -1.802997e+02 -2.049558e+03 
2.318833e+02 -1.744238e+02 -2.049487e+03 
2.319349e+02 -1.685635e+02 -2.049690e+03 
2.319890e+02 -1.627685e+02 -2.049699e+03 
2.320824e+02 -1.569612e+02 -2.049802e+03 
2.321594e+02 -1.511788e+02 -2.049797e+03 
2.322397e+02 -1.454101e+02 -2.050029e+03 
2.324411e+02 -1.396673e+02 -2.050273e+03 
2.326153e+02 -1.340083e+02 -2.050435e+03 
2.327814e+02 -1.282989e+02 -2.050792e+03 
2.329833e+02 -1.226711e+02 -2.050978e+03 
2.331804e+02 -1.170592e+02 -2.051307e+03 
2.333487e+02 -1.114886e+02 -2.051655e+03 
2.335617e+02 -1.059062e+02 -2.052160e+03 
2.337840e+02 -1.004304e+02 -2.052615e+03 
2.339938e+02 -9.502808e+01 -2.053088e+03 
2.342113e+02 -8.964735e+01 -2.053672e+03 
2.344759e+02 -8.434785e+01 -2.054047e+03 
2.347626e+02 -7.904380e+01 -2.054482e+03 
2.351110e+02 -7.382758e+01 -2.054909e+03 
2.354910e+02 -6.863157e+01 -2.055456e+03 
2.359190e+02 -6.352977e+01 -2.056027e+03 
2.363440e+02 -5.845936e+01 -2.056510e+03 
2.368325e+02 -5.342952e+01 -2.057010e+03 
2.373590e+02 -4.847960e+01 -2.057360e+03 
2.379446e+02 -4.359646e+01 -2.057953e+03 
2.384918e+02 -3.876314e+01 -2.058304e+03 
2.390963e+02 -3.398911e+01 -2.058773e+03 
2.397180e+02 -2.929762e+01 -2.059153e+03 
2.403750e+02 -2.465308e+01 -2.059811e+03 
2.410147e+02 -2.008354e+01 -2.060240e+03 
2.416514e+02 -1.559617e+01 -2.060729e+03 
2.423349e+02 -1.117544e+01 -2.061395e+03 
2.429786e+02 -6.777679e+00 -2.061864e+03 
2.436367e+02 -2.474443e+00 -2.062553e+03 
2.442694e+02 1.760753e+00 -2.062932e+03 
2.449297e+02 5.935263e+00 -2.063626e+03 
2.455909e+02 1.004218e+01 -2.064176e+03 
2.462480e+02 1.411656e+01 -2.064845e+03 
2.469211e+02 1.815529e+01 -2.065451e+03 
2.476578e+02 2.210929e+01 -2.066075e+03 
2.483833e+02 2.598635e+01 -2.066612e+03 
2.491072e+02 2.979172e+01 -2.067203e+03 
2.498391e+02 3.355167e+01 -2.067777e+03 
2.505757e+02 3.723253e+01 -2.068471e+03 
2.513156e+02 4.085273e+01 -2.069050e+03 
2.520521e+02 4.436215e+01 -2.069668e+03 
2.527836e+02 4.780500e+01 -2.070181e+03 
2.535260e+02 5.122624e+01 -2.070895e+03 
2.542235e+02 5.452991e+01 -2.071542e+03 
2.549305e+02 5.784022e+01 -2.072071e+03 
2.557084e+02 6.112705e+01 -2.072796e+03 
2.564833e+02 6.437577e+01 -2.073413e+03 
2.572701e+02 6.756260e+01 -2.073837e+03 
2.581248e+02 7.075954e+01 -2.074355e+03 
2.589311e+02 7.387998e+01 -2.074947e+03 
2.597333e+02 7.695016e+01 -2.075508e+03 
2.605840e+02 7.995173e+01 -2.076033e+03 
2.613690e+02 8.284583e+01 -2.076487e+03 
2.622008e+02 8.567533e+01 -2.077313e+03 
2.629329e+02 8.834055e+01 -2.077690e+03 
2.636317e+02 9.096035e+01 -2.078447e+03 
2.642103e+02 9.346348e+01 -2.078979e+03 
2.647643e+02 9.589206e+01 -2.079635e+03 
2.653057e+02 9.827199e+01 -2.080295e+03 
2.657809e+02 1.005634e+02 -2.080847e+03 
2.662524e+02 1.028616e+02 -2.081553e+03 
2.666922e+02 1.050963e+02 -2.082165e+03 
2.671130e+02 1.073237e+02 -2.082761e+03 
2.675366e+02 1.095313e+02 -2.083347e+03 
2.679522e+02 1.116772e+02 -2.083969e+03 
2.683827e+02 1.138254e+02 -2.084486e+03 
2.687825e+02 1.159416e+02 -2.085100e+03 
2.691799e+02 1.179848e+02 -2.085612e+03 
2.695374e+02 1.200074e+02 -2.086203e+03 
2.699010e+02 1.219403e+02 -2.086812e+03 
2.702109e+02 1.237925e+02 -2.087284e+03 
2.704975e+02 1.256004e+02 -2.087831e+03 
2.707798e+02 1.273389e+02 -2.088381e+03 
2.710378e+02 1.290405e+02 -2.088838e+03 
2.712664e+02 1.306756e+02 -2.089293e+03 
2.714895e+02 1.322932e+02 -2.089822e+03 
2.716971e+02 1.338697e+02 -2.090323e+03 
2.718875e+02 1.354598e+02 -2.090892e+03 
2.720236e+02 1.370432e+02 -2.091344e+03 
2.721303e+02 1.386221e+02 -2.091796e+03 
2.722212e+02 1.402076e+02 -2.092352e+03 
2.722821e+02 1.418212e+02 -2.092788e+03 
2.723461e+02 1.434142e+02 -2.093323e+03 
2.723924e+02 1.450208e+02 -2.093925e+03 
2.723984e+02 1.465541e+02 -2.094333e+03 
2.724074e+02 1.480867e+02 -2.094926e+03 
2.723803e+02 1.495233e+02 -2.095414e+03 
2.723278e+02 1.508969e+02 -2.095790e+03 
2.722639e+02 1.522206e+02 -2.096256e+03 
2.721991e+02 1.534849e+02 -2.096825e+03 
2.720682e+02 1.546640e+02 -2.097218e+03 
2.719369e+02 1.557554e+02 -2.097595e+03 
2.718020e+02 1.568154e+02 -2.098065e+03 
2.716201e+02 1.577863e+02 -2.098512e+03 
2.714298e+02 1.586918e+02 -2.098975e+03 
2.711973e+02 1.594956e+02 -2.099363e+03 
2.709404e+02 1.602449e+02 -2.099827e+03 
2.706363e+02 1.608969e+02 -2.100282e+03 
2.702843e+02 1.614473e+02 -2.100728e+03 
2.698752e+02 1.618898e+02 -2.101090e+03 
2.694359e+02 1.622544e+02 -2.101542e+03 
2.689630e+02 1.625505e+02 -2.102009e+03 
2.684388e+02 1.627675e+02 -2.102394e+03 
2.678891e+02 1.629337e+02 -2.102786e+03 
2.673216e+02 1.630725e+02 -2.103220e+03 
2.667172e+02 1.631731e+02 -2.103610e+03 
2.660928e+02 1.632589e+02 -2.103975e+03 
2.654837e+02 1.633564e+02 -2.104375e+03 
2.649095e+02 1.634588e+02 -2.104773e+03 
2.643370e+02 1.635729e+02 -2.105155e+03 
2.638378e+02 1.637108e+02 -2.105462e+03 
2.636737e+02 1.638316e+02 -2.105471e+03 
2.636542e+02 1.639456e+02 -2.105344e+03 
2.635923e+02 1.640747e+02 -2.105226e+03 
2.634981e+02 1.642029e+02 -2.105121e+03 
2.633575e+02 1.643216e+02 -2.105064e+03 
2.631882e+02 1.644394e+02 -2.105084e+03 
2.630616e+02 1.645701e+02 -2.105102e+03 
2.629330e+02 1.647021e+02 -2.105161e+03 
2.628439e+02 1.648175e+02 -2.105113e+03 
2.627691e+02 1.649415e+02 -2.105052e+03 
2.627413e+02 1.650429e+02 -2.104955e+03 
2.627122e+02 1.651527e+02 -2.104887e+03 
2.626626e+02 1.652528e+02 -2.104850e+03 
2.626080e+02 1.653491e+02 -2.104784e+03 
2.625519e+02 1.654364e+02 -2.104731e+03 
2.625064e+02 1.655179e+02 -2.104674e+03 
2.624576e+02 1.655955e+02 -2.104613e+03 
2.624015e+02 1.656709e+02 -2.104571e+03 
2.623681e+02 1.657340e+02 -2.104502e+03 
2.623479e+02 1.658007e+02 -2.104444e+03 
2.623285e+02 1.658622e+02 -2.104395e+03 
2.623101e+02 1.659186e+02 -2.104350e+03 
2.623006e+02 1.659740e+02 -2.104321e+03 
2.622948e+02 1.660259e+02 -2.104274e+03 
2.622891e+02 1.660701e+02 -2.104253e+03 
2.622863e+02 1.661201e+02 -2.104219e+03 
2.622856e+02 1.661621e+02 -2.104197e+03 
2.622831e+02 1.661986e+02 -2.104189e+03 
2.622725e+02 1.662312e+02 -2.104172e+03 
2.622554e+02 1.662603e+02 -2.104165e+03 
2.622326e+02 1.662853e+02 -2.104147e+03 
2.622185e+02 1.663122e+02 -2.104129e+03 
2.622158e+02 1.663404e+02 -2.104129e+03 
2.622197e+02 1.663665e+02 -2.104122e+03 
2.622220e+02 1.663869e+02 -2.104113e+03 
2.622267e+02 1.664009e+02 -2.104111e+03 
2.622372e+02 1.664092e+02 -2.104110e+03 
2.622387e+02 1.664150e+02 -2.104118e+03 
2.622437e+02 1.664106e+02 -2.104111e+03 
2.622411e+02 1.664109e+02 -2.104125e+03 
2.622376e+02 1.664077e+02 -2.104124e+03 
2.622361e+02 1.664008e+02 -2.104114e+03 
2.622228e+02 1.663933e+02 -2.104129e+03 
2.622172e+02 1.663878e+02 -2.104146e+03 
2.622065e+02 1.663798e+02 -2.104157e+03 
2.621949e+02 1.663674e+02 -2.104172e+03 
2.621908e+02 1.663547e+02 -2.104172e+03 
2.621796e+02 1.663420e+02 -2.104188e+03 
2.621644e+02 1.663295e+02 -2.104212e+03 
2.621574e+02 1.663164e+02 -2.104215e+03 
2.621375e+02 1.663065e+02 -2.104216e+03 
2.621276e+02 1.663007e+02 -2.104229e+03 
2.621157e+02 1.662944e+02 -2.104233e+03 
2.621081e+02 1.662893e+02 -2.104230e+03 
2.620988e+02 1.662859e+02 -2.104228e+03 
2.620977e+02 1.662844e+02 -2.104246e+03 
2.620946e+02 1.662821e+02 -2.104249e+03 
2.620955e+02 1.662779e+02 -2.104257e+03 
2.620969e+02 1.662732e+02 -2.104260e+03 
2.620941e+02 1.662675e+02 -2.104272e+03 
2.620883e+02 1.662594e+02 -2.104280e+03 
2.620848e+02 1.662508e+02 -2.104291e+03 
2.620778e+02 1.662419e+02 -2.104302e+03 
2.620790e+02 1.662293e+02 -2.104308e+03 
2.620681e+02 1.662175e+02 -2.104320e+03 
2.620640e+02 1.662096e+02 -2.104318e+03 
2.620501e+02 1.662018e+02 -2.104326e+03 
2.620427e+02 1.661958e+02 -2.104339e+03 
2.620360e+02 1.661857e+02 -2.104347e+03 
2.620294e+02 1.661747e+02 -2.104337e+03 
2.620200e+02 1.661654e+02 -2.104359e+03 
2.620116e+02 1.661522e+02 -2.104360e+03 
2.620005e+02 1.661444e+02 -2.104372e+03 
2.619923e+02 1.661310e+02 -2.104381e+03 
2.619818e+02 1.661196e+02 -2.104401e+03 
2.619709e+02 1.661032e+02 -2.104409e+03 
2.619702e+02 1.660959e+02 -2.104406e+03 
2.619747e+02 1.660884e+02 -2.104418e+03 
2.619750e+02 1.660842e+02 -2.104421e+03 
2.619818e+02 1.660732e+02 -2.104421e+03 
2.619854e+02 1.660638e+02 -2.104438e+03 
2.619956e+02 1.660455e+02 -2.104434e+03 
2.619980e+02 1.660281e+02 -2.104432e+03 
2.620100e+02 1.660133e+02 -2.104456e+03 
2.620247e+02 1.659941e+02 -2.104476e+03 
2.620345e+02 1.659788e+02 -2.104482e+03 
2.620509e+02 1.659587e+02 -2.104486e+03 
2.620764e+02 1.659396e+02 -2.104511e+03 
2.620905e+02 1.659198e+02 -2.104510e+03 
2.620972e+02 1.659044e+02 -2.104526e+03 
2.621124e+02 1.658853e+02 -2.104531e+03 
2.621209e+02 1.658675e+02 -2.104547e+03 
2.621326e+02 1.658393e+02 -2.104548e+03 
2.621323e+02 1.658181e+02 -2.104559e+03 
2.621315e+02 1.658011e+02 -2.104550e+03 
2.621364e+02 1.657911e+02 -2.104568e+03 
2.621329e+02 1.657792e+02 -2.104561e+03 
2.621309e+02 1.657743e+02 -2.104565e+03 
2.621367e+02 1.657649e+02 -2.104568e+03 
2.621372e+02 1.657561e+02 -2.104575e+03 
2.621442e+02 1.657402e+02 -2.104583e+03 
2.621506e+02 1.657172e+02 -2.104574e+03 
2.621516e+02 1.656962e+02 -2.104587e+03 
2.621548e+02 1.656710e+02 -2.104589e+03 
2.621603e+02 1.656477e+02 -2.104589e+03 
2.621658e+02 1.656192e+02 -2.104597e+03 
2.621684e+02 1.655825e+02 -2.104600e+03 
2.621708e+02 1.655328e+02 -2.104621e+03 
2.621740e+02 1.654649e+02 -2.104621e+03 
2.621673e+02 1.653878e+02 -2.104626e+03 
2.621612e+02 1.652968e+02 -2.104607e+03 
2.621475e+02 1.652021e+02 -2.104599e+03 
2.621408e+02 1.651132e+02 -2.104592e+03 
2.621321e+02 1.650224e+02 -2.104586e+03 
2.621276e+02 1.649169e+02 -2.104596e+03 
2.621129e+02 1.648064e+02 -2.104570e+03 
2.620891e+02 1.647060e+02 -2.104535e+03 
2.620661e+02 1.646190e+02 -2.104505e+03 
2.620554e+02 1.645524e+02 -2.104501e+03 
2.620350e+02 1.644984e+02 -2.104496e+03 
2.620182e+02 1.644482e+02 -2.104482e+03 
2.620009e+02 1.644082e+02 -2.104480e+03 
2.619850e+02 1.643666e+02 -2.104459e+03 
2.619743e+02 1.643312e+02 -2.104454e+03 
2.619683e+02 1.643075e+02 -2.104438e+03 
2.619594e+02 1.642912e+02 -2.104434e+03 
2.619549e+02 1.642859e+02 -2.104427e+03 
2.619598e+02 1.642885e+02 -2.104428e+03 
2.619632e+02 1.642965e+02 -2.104429e+03 
2.619661e+02 1.642997e+02 -2.104434e+03 
2.619713e+02 1.643064e+02 -2.104436e+03 
2.619721e+02 1.643124e+02 -2.104437e+03 
2.619684e+02 1.643120e+02 -2.104420e+03 
2.619612e+02 1.643150e+02 -2.104438e+03 
2.619562e+02 1.643070e+02 -2.104424e+03 
2.619395e+02 1.642915e+02 -2.104411e+03 
2.619213e+02 1.642655e+02 -2.104387e+03 
2.618904e+02 1.642273e+02 -2.104352e+03 
2.618457e+02 1.641778e+02 -2.104313e+03 
2.617972e+02 1.641207e+02 -2.104251e+03 
2.617610e+02 1.640766e+02 -2.104193e+03 
2.617361e+02 1.640459e+02 -2.104185e+03 
2.617142e+02 1.640155e+02 -2.104143e+03 
2.616931e+02 1.640031e+02 -2.104128e+03 
2.616876e+02 1.640036e+02 -2.104116e+03 
2.616916e+02 1.640120e+02 -2.104119e+03 
2.616968e+02 1.640253e+02 -2.104118e+03 
2.616876e+02 1.640373e+02 -2.104119e+03 
2.616863e+02 1.640446e+02 -2.104115e+03 
2.616815e+02 1.640540e+02 -2.104128e+03 
2.616715e+02 1.640537e+02 -2.104103e+03 
2.616677e+02 1.640543e+02 -2.104109e+03 
2.616630e+02 1.640520e+02 -2.104102e+03 
2.616572e+02 1.640477e+02 -2.104093e+03 
2.616515e+02 1.640415e+02 -2.104079e+03 
2.616443e+02 1.640373e+02 -2.104059e+03 
2.616384e+02 1.640333e+02 -2.104057e+03 
2.616356e+02 1.640291e+02 -2.104053e+03 
2.616336e+02 1.640279e+02 -2.104057e+03 
2.616285e+02 1.640267e+02 -2.104050e+03 
2.616254e+02 1.640259e+02 -2.104049e+03 
2.616222e+02 1.640275e+02 -2.104047e+03 
2.616211e+02 1.640341e+02 -2.104066e+03 
2.616200e+02 1.640342e+02 -2.104052e+03 
2.616162e+02 1.640340e+02 -2.104048e+03 
2.616111e+02 1.640327e+02 -2.104049e+03 
2.616166e+02 1.640269e+02 -2.104047e+03 
2.616178e+02 1.640195e+02 -2.104053e+03 
2.616169e+02 1.640096e+02 -2.104044e+03 
2.616203e+02 1.639982e+02 -2.104045e+03 
2.616220e+02 1.639920e+02 -2.104047e+03 
2.616218e+02 1.639779e+02 -2.104040e+03 
2.616301e+02 1.639645e+02 -2.104063e+03 
2.616337e+02 1.639436e+02 -2.104060e+03 
2.616430e+02 1.639171e+02 -2.104070e+03 
2.616638e+02 1.638905e+02 -2.104105e+03 
2.616830e+02 1.638558e+02 -2.104137e+03 
2.616933e+02 1.638247e+02 -2.104152e+03 
2.617136e+02 1.637961e+02 -2.104174e+03 
2.617247e+02 1.637685e+02 -2.104192e+03 
2.617386e+02 1.637381e+02 -2.104205e+03 
2.617491e+02 1.637122e+02 -2.104232e+03 
2.617629e+02 1.636798e+02 -2.104227e+03 
2.617861e+02 1.636517e+02 -2.104251e+03 
2.618075e+02 1.636208e+02 -2.104266e+03 
2.618340e+02 1.635872e+02 -2.104292e+03 
2.618509e+02 1.635549e+02 -2.104304e+03 
2.618618e+02 1.635210e+02 -2.104313e+03 
2.618664e+02 1.634943e+02 -2.104310e+03 
2.618681e+02 1.634601e+02 -2.104309e+03 
2.618783e+02 1.634238e+02 -2.104313e+03 
2.618898e+02 1.633920e+02 -2.104320e+03 
2.619041e+02 1.633672e+02 -2.104324e+03 
2.619228e+02 1.633425e+02 -2.104344e+03 
2.619366e+02 1.633274e+02 -2.104355e+03 
2.619392e+02 1.633160e+02 -2.104362e+03 
2.619447e+02 1.633055e+02 -2.104371e+03 
2.619531e+02 1.632941e+02 -2.104374e+03 
2.619639e+02 1.632829e+02 -2.104382e+03 
2.619832e+02 1.632693e+02 -2.104397e+03 
2.620004e+02 1.632576e+02 -2.104414e+03 
2.620166e+02 1.632463e+02 -2.104439e+03 
2.620242e+02 1.632320e+02 -2.104443e+03 
2.620293e+02 1.632282e+02 -2.104465e+03 
2.620320e+02 1.632158e+02 -2.104459e+03 
2.620403e+02 1.632036e+02 -2.104470e+03 
2.620433e+02 1.631946e+02 -2.104474e+03 
2.620512e+02 1.631876e+02 -2.104480e+03 
2.620533e+02 1.631796e+02 -2.104485e+03 
2.620593e+02 1.631777e+02 -2.104484e+03 
2.620658e+02 1.631779e+02 -2.104489e+03 
2.620791e+02 1.631760e+02 -2.104506e+03 
2.620897e+02 1.631726e+02 -2.104501e+03 
2.621040e+02 1.631687e+02 -2.104517e+03 
2.621058e+02 1.631614e+02 -2.104520e+03 
2.621129e+02 1.631523e+02 -2.104526e+03 
2.621208e+02 1.631486e+02 -2.104537e+03 
2.621240e+02 1.631476e+02 -2.104543e+03 
2.621241e+02 1.631484e+02 -2.104552e+03 
2.621240e+02 1.631504e+02 -2.104540e+03 
2.621217e+02 1.631496e+02 -2.104545e+03 
2.621390e+02 1.631511e+02 -2.104551e+03 
2.621383e+02 1.631497e+02 -2.104551e+03 
2.621451e+02 1.631480e+02 -2.104559e+03 
2.621486e+02 1.631459e+02 -2.104546e+03 
2.621565e+02 1.631501e+02 -2.104557e+03 
2.621537e+02 1.631515e+02 -2.104556e+03 
2.621543e+02 1.631572e+02 -2.104561e+03 
2.621554e+02 1.631618e+02 -2.104559e+03 
2.621564e+02 1.631647e+02 -2.104552e+03 
2.621552e+02 1.631711e+02 -2.104554e+03 
2.621628e+02 1.631804e+02 -2.104549e+03 
2.621601e+02 1.631931e+02 -2.104556e+03 
2.621606e+02 1.632071e+02 -2.104549e+03 
2.621621e+02 1.632061e+02 -2.104558e+03 
2.621628e+02 1.632085e+02 -2.104542e+03 
2.621614e+02 1.632126e+02 -2.104531e+03 
2.621662e+02 1.632132e+02 -2.104536e+03 
2.621614e+02 1.632179e+02 -2.104536e+03 
2.621565e+02 1.632181e+02 -2.104528e+03 
2.621547e+02 1.632199e+02 -2.104532e+03 
2.621511e+02 1.632201e+02 -2.104531e+03 
2.621510e+02 1.632223e+02 -2.104527e+03 
2.621466e+02 1.632199e+02 -2.104537e+03 
2.621375e+02 1.632190e+02 -2.104530e+03 
2.621404e+02 1.632188e+02 -2.104535e+03 
2.621351e+02 1.632188e+02 -2.104530e+03 
2.621407e+02 1.632213e+02 -2.104541e+03 
2.621434e+02 1.632186e+02 -2.104529e+03 
2.621494e+02 1.632168e+02 -2.104518e+03 
2.621536e+02 1.632215e+02 -2.104538e+03 
2.621555e+02 1.632187e+02 -2.104530e+03 
2.621582e+02 1.632182e+02 -2.104528e+03 
2.621581e+02 1.632200e+02 -2.104528e+03 
2.621541e+02 1.632214e+02 -2.104532e+03 
2.621588e+02 1.632215e+02 -2.104536e+03 
2.621496e+02 1.632264e+02 -2.104534e+03 
2.621491e+02 1.632234e+02 -2.104534e+03 
2.621522e+02 1.632233e+02 -2.104538e+03 
2.621536e+02 1.632229e+02 -2.104536e+03 
2.621545e+02 1.632246e+02 -2.104542e+03 
2.621502e+02 1.632238e+02 -2.104531e+03 
2.621528e+02 1.632223e+02 -2.104539e+03 
2.621585e+02 1.632246e+02 -2.104537e+03 
2.621615e+02 1.632232e+02 -2.104530e+03 
2.621633e+02 1.632222e+02 -2.104530e+03 
2.621710e+02 1.632230e+02 -2.104534e+03 
2.621717e+02 1.632224e+02 -2.104537e+03 
2.621683e+02 1.632214e+02 -2.104536e+03 
2.621652e+02 1.632231e+02 -2.104534e+03 
2.621619e+02 1.632220e+02 -2.104546e+03 
2.621603e+02 1.632225e+02 -2.104541e+03 
2.621466e+02 1.632220e+02 -2.104538e+03 
2.621573e+02 1.632256e+02 -2.104553e+03 
2.621574e+02 1.632215e+02 -2.104537e+03 
2.621603e+02 1.632238e+02 -2.104547e+03 
2.621660e+02 1.632251e+02 -2.104528e+03 
2.621712e+02 1.632285e+02 -2.104547e+03 
2.621739e+02 1.632254e+02 -2.104540e+03 
2.621801e+02 1.632260e+02 -2.104542e+03 
2.621860e+02 1.632309e+02 -2.104546e+03 
2.621906e+02 1.632299e+02 -2.104529e+03 
2.621968e+02 1.632312e+02 -2.104539e+03 
2.621917e+02 1.632313e+02 -2.104541e+03 
2.621867e+02 1.632307e+02 -2.104528e+03 
2.621849e+02 1.632345e+02 -2.104525e+03 
2.621796e+02 1.632355e+02 -2.104530e+03 
2.621728e+02 1.632364e+02 -2.104529e+03 
2.621806e+02 1.632364e+02 -2.104533e+03 
2.621852e+02 1.632386e+02 -2.104527e+03 
2.621930e+02 1.632384e+02 -2.104527e+03 
2.621978e+02 1.632397e+02 -2.104539e+03 
