2.445687e+02 -4.477663e+02 -2.095931e+03 
2.445635e+02 -4.477722e+02 -2.095963e+03 
2.445615e+02 -4.477716e+02 -2.095967e+03 
2.445513e+02 -4.477699e+02 -2.095945e+03 
2.445459e+02 -4.477770e+02 -2.095955e+03 
2.445469e+02 -4.477747e+02 -2.095984e+03 
2.445454e+02 -4.477650e+02 -2.095975e+03 
2.445498e+02 -4.477737e+02 -2.095952e+03 
2.445543e+02 -4.477732e+02 -2.095956e+03 
2.445568e+02 -4.477746e+02 -2.095946e+03 
2.445638e+02 -4.477661e+02 -2.095955e+03 
2.445606e+02 -4.477688e+02 -2.095952e+03 
2.445586e+02 -4.477714e+02 -2.095955e+03 
2.445623e+02 -4.477733e+02 -2.095962e+03 
2.445577e+02 -4.477696e+02 -2.095959e+03 
2.445459e+02 -4.477733e+02 -2.095938e+03 
2.445540e+02 -4.477705e+02 -2.095965e+03 
2.445352e+02 -4.477714e+02 -2.095934e+03 
2.445408e+02 -4.477726e+02 -2.095980e+03 
2.445368e+02 -4.477705e+02 -2.095969e+03 
2.445388e+02 -4.477743e+02 -2.095958e+03 
2.445367e+02 -4.477689e+02 -2.095951e+03 
2.445414e+02 -4.477640e+02 -2.095942e+03 
2.445517e+02 -4.477706e+02 -2.095969e+03 
2.445542e+02 -4.477753e+02 -2.095952e+03 
2.445614e+02 -4.477743e+02 -2.095957e+03 
2.445602e+02 -4.477743e+02 -2.095972e+03 
2.445593e+02 -4.477726e+02 -2.095974e+03 
2.445530e+02 -4.477758e+02 -2.095940e+03 
2.445548e+02 -4.477769e+02 -2.095951e+03 
2.445448e+02 -4.477794e+02 -2.095966e+03 
2.445387e+02 -4.477787e+02 -2.095958e+03 
2.445327e+02 -4.477803e+02 -2.095944e+03 
2.445323e+02 -4.477820e+02 -2.095987e+03 
2.445273e+02 -4.477782e+02 -2.095955e+03 
2.445275e+02 -4.477849e+02 -2.095974e+03 
2.445367e+02 -4.477849e+02 -2.095977e+03 
2.445354e+02 -4.477774e+02 -2.095955e+03 
2.445340e+02 -4.477845e+02 -2.095974e+03 
2.445411e+02 -4.477836e+02 -2.095944e+03 
2.445446e+02 -4.477844e+02 -2.095943e+03 
2.445369e+02 -4.477837e+02 -2.095940e+03 
2.445347e+02 -4.477847e+02 -2.095954e+03 
2.445291e+02 -4.477861e+02 -2.095943e+03 
2.445227e+02 -4.477900e+02 -2.095942e+03 
2.445216e+02 -4.477846e+02 -2.095983e+03 
2.445175e+02 -4.477848e+02 -2.095966e+03 
2.445164e+02 -4.477856e+02 -2.095967e+03 
2.445109e+02 -4.477856e+02 -2.095973e+03 
2.445188e+02 -4.477854e+02 -2.095980e+03 
2.445231e+02 -4.477856e+02 -2.095958e+03 
2.445199e+02 -4.477807e+02 -2.095930e+03 
2.445327e+02 -4.477836e+02 -2.095950e+03 
2.445370e+02 -4.477846e+02 -2.095946e+03 
2.445423e+02 -4.477953e+02 -2.095976e+03 
2.445431e+02 -4.477918e+02 -2.095964e+03 
2.445425e+02 -4.477889e+02 -2.095964e+03 
2.445409e+02 -4.477933e+02 -2.095976e+03 
2.445307e+02 -4.477835e+02 -2.095943e+03 
2.445155e+02 -4.477888e+02 -2.095949e+03 
2.445181e+02 -4.477860e+02 -2.095935e+03 
2.445196e+02 -4.477888e+02 -2.095968e+03 
2.445123e+02 -4.477847e+02 -2.095976e+03 
2.445171e+02 -4.477821e+02 -2.095953e+03 
2.445192e+02 -4.477754e+02 -2.095944e+03 
2.445152e+02 -4.477776e+02 -2.095924e+03 
2.445302e+02 -4.477763e+02 -2.095951e+03 
2.445363e+02 -4.477764e+02 -2.095931e+03 
2.445405e+02 -4.477760e+02 -2.095953e+03 
2.445356e+02 -4.477744e+02 -2.095938e+03 
2.445401e+02 -4.477734e+02 -2.095942e+03 
2.445296e+02 -4.477667e+02 -2.095912e+03 
2.445257e+02 -4.477672e+02 -2.095932e+03 
2.445316e+02 -4.477675e+02 -2.095938e+03 
2.445290e+02 -4.477650e+02 -2.095964e+03 
2.445249e+02 -4.477675e+02 -2.095951e+03 
2.445253e+02 -4.477642e+02 -2.095951e+03 
2.445300e+02 -4.477611e+02 -2.095944e+03 
2.445368e+02 -4.477598e+02 -2.095976e+03 

2.445356e+02 -4.477498e+02 -2.095962e+03 
2.445405e+02 -4.477535e+02 -2.095952e+03 
2.445408e+02 -4.477517e+02 -2.095939e+03 
2.445444e+02 -4.477514e+02 -2.095956e+03 
2.445467e+02 -4.477513e+02 -2.095929e+03 
2.445412e+02 -4.477492e+02 -2.095938e+03 
2.445441e+02 -4.477567e+02 -2.095957e+03 
2.445380e+02 -4.477542e+02 -2.095970e+03 
2.445335e+02 -4.477546e+02 -2.095937e+03 
2.445260e+02 -4.477523e+02 -2.095929e+03 
2.445224e+02 -4.477502e+02 -2.095927e+03 
2.445282e+02 -4.477611e+02 -2.095962e+03 
2.445308e+02 -4.477637e+02 -2.095965e+03 
2.445300e+02 -4.477587e+02 -2.095956e+03 
2.445244e+02 -4.477627e+02 -2.095924e+03 
2.445261e+02 -4.477603e+02 -2.095945e+03 
2.445335e+02 -4.477665e+02 -2.095962e+03 
2.445319e+02 -4.477641e+02 -2.095973e+03 
2.445296e+02 -4.477698e+02 -2.095949e+03 
2.445194e+02 -4.477658e+02 -2.095940e+03 
2.445090e+02 -4.477619e+02 -2.095940e+03 
2.445079e+02 -4.477554e+02 -2.095952e+03 
2.444954e+02 -4.477451e+02 -2.095932e+03 
2.444867e+02 -4.477414e+02 -2.095924e+03 
2.444684e+02 -4.477329e+02 -2.095916e+03 
2.444535e+02 -4.477242e+02 -2.095869e+03 
2.444483e+02 -4.477189e+02 -2.095899e+03 
2.444550e+02 -4.477147e+02 -2.095913e+03 
2.444455e+02 -4.477163e+02 -2.095885e+03 
2.444448e+02 -4.477189e+02 -2.095917e+03 
2.444473e+02 -4.477082e+02 -2.095896e+03 
2.444366e+02 -4.477035e+02 -2.095881e+03 
2.444358e+02 -4.477008e+02 -2.095878e+03 
2.444279e+02 -4.476959e+02 -2.095866e+03 
2.444225e+02 -4.476861e+02 -2.095870e+03 
2.444115e+02 -4.476644e+02 -2.095864e+03 
2.443982e+02 -4.476352e+02 -2.095859e+03 
2.443706e+02 -4.476016e+02 -2.095860e+03 
2.443618e+02 -4.475707e+02 -2.095866e+03 
2.443440e+02 -4.475366e+02 -2.095823e+03 
2.443235e+02 -4.474958e+02 -2.095800e+03 
2.442999e+02 -4.474428e+02 -2.095768e+03 
2.442611e+02 -4.473859e+02 -2.095760e+03 
2.442267e+02 -4.473145e+02 -2.095678e+03 
2.441945e+02 -4.472433e+02 -2.095677e+03 
2.441499e+02 -4.471546e+02 -2.095654e+03 
2.440975e+02 -4.470615e+02 -2.095583e+03 
2.440492e+02 -4.469567e+02 -2.095544e+03 
2.439785e+02 -4.468226e+02 -2.095454e+03 
2.438922e+02 -4.466564e+02 -2.095300e+03 
2.437874e+02 -4.464719e+02 -2.095179e+03 
2.436426e+02 -4.462667e+02 -2.095098e+03 
2.434495e+02 -4.459958e+02 -2.094807e+03 
2.432611e+02 -4.457196e+02 -2.094569e+03 
2.430668e+02 -4.453806e+02 -2.094254e+03 
2.427857e+02 -4.449890e+02 -2.093971e+03 
2.424656e+02 -4.445249e+02 -2.093463e+03 
2.421394e+02 -4.440380e+02 -2.093062e+03 
2.417335e+02 -4.434737e+02 -2.092500e+03 
2.414516e+02 -4.428477e+02 -2.091833e+03 
2.411439e+02 -4.421660e+02 -2.091171e+03 
2.408472e+02 -4.413813e+02 -2.090286e+03 
2.405808e+02 -4.404767e+02 -2.089245e+03 
2.403289e+02 -4.394874e+02 -2.088057e+03 
2.400257e+02 -4.384287e+02 -2.086774e+03 
2.396784e+02 -4.372473e+02 -2.085372e+03 
2.392839e+02 -4.359420e+02 -2.083913e+03 
2.388859e+02 -4.345324e+02 -2.082429e+03 
2.383268e+02 -4.329714e+02 -2.080775e+03 
2.377734e+02 -4.312705e+02 -2.079096e+03 
2.371144e+02 -4.295082e+02 -2.077609e+03 
2.364207e+02 -4.276455e+02 -2.076078e+03 
2.356841e+02 -4.256807e+02 -2.074493e+03 
2.349046e+02 -4.235957e+02 -2.072854e+03 
2.340692e+02 -4.214227e+02 -2.071085e+03 
2.332186e+02 -4.191513e+02 -2.069358e+03 
2.323472e+02 -4.168019e+02 -2.067690e+03 
2.314053e+02 -4.142883e+02 -2.065785e+03 
2.304036e+02 -4.117343e+02 -2.063943e+03 
2.293053e+02 -4.089195e+02 -2.061873e+03 
2.282324e+02 -4.060078e+02 -2.059875e+03 
2.270295e+02 -4.029211e+02 -2.057896e+03 
2.257090e+02 -3.996686e+02 -2.055724e+03 
2.242788e+02 -3.962802e+02 -2.053603e+03 
2.227796e+02 -3.926874e+02 -2.051440e+03 
2.211738e+02 -3.889568e+02 -2.049093e+03 
2.194990e+02 -3.850349e+02 -2.046838e+03 
2.177442e+02 -3.810116e+02 -2.044640e+03 
2.158288e+02 -3.768540e+02 -2.042545e+03 
2.138367e+02 -3.725596e+02 -2.040120e+03 
2.118618e+02 -3.681522e+02 -2.038013e+03 
2.096795e+02 -3.636527e+02 -2.035916e+03 
2.074401e+02 -3.590374e+02 -2.033820e+03 
2.051499e+02 -3.543057e+02 -2.031593e+03 
2.027132e+02 -3.494157e+02 -2.029394e+03 
2.003564e+02 -3.444903e+02 -2.027290e+03 
1.978470e+02 -3.394473e+02 -2.024975e+03 
1.954439e+02 -3.343246e+02 -2.022651e+03 
1.928613e+02 -3.290422e+02 -2.020168e+03 
1.904211e+02 -3.237035e+02 -2.017907e+03 
1.878201e+02 -3.182052e+02 -2.015294e+03 
1.852582e+02 -3.126794e+02 -2.012859e+03 
1.827248e+02 -3.070162e+02 -2.010145e+03 
1.801687e+02 -3.012783e+02 -2.007514e+03 
1.775442e+02 -2.954186e+02 -2.004855e+03 
1.750443e+02 -2.895733e+02 -2.002205e+03 
1.724677e+02 -2.836084e+02 -1.999554e+03 
1.699107e+02 -2.776441e+02 -1.996879e+03 
1.673048e+02 -2.716198e+02 -1.994175e+03 
1.647241e+02 -2.655608e+02 -1.991557e+03 
1.620806e+02 -2.594275e+02 -1.989145e+03 
1.594720e+02 -2.533145e+02 -1.986440e+03 
1.567978e+02 -2.471430e+02 -1.983874e+03 
1.541718e+02 -2.409093e+02 -1.981294e+03 
1.516184e+02 -2.346216e+02 -1.978696e+03 
1.490538e+02 -2.283046e+02 -1.976020e+03 
1.465591e+02 -2.219692e+02 -1.973516e+03 
1.441272e+02 -2.156198e+02 -1.970933e+03 
1.416970e+02 -2.092301e+02 -1.968379e+03 
1.393687e+02 -2.028742e+02 -1.965530e+03 
1.370567e+02 -1.965481e+02 -1.962902e+03 
1.349220e+02 -1.902766e+02 -1.960255e+03 
1.327291e+02 -1.840865e+02 -1.957741e+03 
1.306452e+02 -1.779836e+02 -1.955097e+03 
1.286167e+02 -1.720469e+02 -1.952558e+03 
1.266229e+02 -1.661900e+02 -1.950029e+03 
1.247751e+02 -1.604244e+02 -1.947504e+03 
1.229706e+02 -1.547900e+02 -1.945108e+03 
1.211775e+02 -1.492693e+02 -1.942606e+03 
1.194227e+02 -1.438459e+02 -1.940300e+03 
1.177626e+02 -1.385158e+02 -1.937832e+03 
1.161788e+02 -1.332906e+02 -1.935494e+03 
1.146008e+02 -1.281617e+02 -1.933178e+03 
1.130647e+02 -1.231204e+02 -1.930752e+03 
1.116678e+02 -1.181518e+02 -1.928419e+03 
1.102752e+02 -1.132389e+02 -1.925974e+03 
1.089190e+02 -1.083297e+02 -1.923780e+03 
1.075490e+02 -1.034814e+02 -1.921345e+03 
1.062889e+02 -9.865109e+01 -1.918994e+03 
1.050874e+02 -9.385860e+01 -1.916769e+03 
1.038905e+02 -8.906490e+01 -1.914438e+03 
1.027537e+02 -8.428236e+01 -1.912158e+03 
1.016609e+02 -7.953191e+01 -1.910011e+03 
1.006219e+02 -7.487947e+01 -1.907691e+03 
9.962191e+01 -7.022498e+01 -1.905560e+03 
9.864023e+01 -6.565405e+01 -1.903418e+03 
9.768601e+01 -6.123664e+01 -1.901328e+03 
9.675002e+01 -5.689106e+01 -1.899335e+03 
9.579561e+01 -5.272429e+01 -1.897256e+03 
9.487988e+01 -4.863632e+01 -1.895427e+03 
9.392842e+01 -4.461571e+01 -1.893419e+03 
9.307471e+01 -4.074658e+01 -1.891569e+03 
9.220920e+01 -3.692004e+01 -1.889680e+03 
9.139582e+01 -3.312773e+01 -1.887837e+03 
9.063708e+01 -2.943737e+01 -1.885899e+03 
8.991825e+01 -2.575794e+01 -1.884159e+03 
8.919796e+01 -2.216628e+01 -1.882296e+03 
8.847451e+01 -1.855997e+01 -1.880502e+03 
8.776577e+01 -1.504164e+01 -1.878812e+03 
8.707059e+01 -1.156590e+01 -1.877095e+03 
8.635995e+01 -8.102076e+00 -1.875410e+03 
8.568348e+01 -4.723820e+00 -1.873829e+03 
8.502808e+01 -1.356272e+00 -1.872308e+03 
8.435474e+01 1.989897e+00 -1.870683e+03 
8.369660e+01 5.309520e+00 -1.869224e+03 
8.305550e+01 8.594618e+00 -1.867818e+03 
8.242845e+01 1.187671e+01 -1.866287e+03 
8.182164e+01 1.518901e+01 -1.864952e+03 
8.122246e+01 1.844256e+01 -1.863531e+03 
8.066130e+01 2.169718e+01 -1.862228e+03 
8.011211e+01 2.494204e+01 -1.860958e+03 
7.957659e+01 2.813555e+01 -1.859666e+03 
7.904889e+01 3.129486e+01 -1.858469e+03 
7.851711e+01 3.442114e+01 -1.857234e+03 
7.801587e+01 3.752713e+01 -1.856140e+03 
7.751302e+01 4.054856e+01 -1.855020e+03 
7.701572e+01 4.359875e+01 -1.853871e+03 
7.653735e+01 4.663246e+01 -1.852943e+03 
7.607286e+01 4.966631e+01 -1.851936e+03 
7.564107e+01 5.272289e+01 -1.850933e+03 
7.526643e+01 5.569082e+01 -1.850025e+03 
7.488438e+01 5.866260e+01 -1.849094e+03 
7.454129e+01 6.160109e+01 -1.848301e+03 
7.418875e+01 6.444785e+01 -1.847600e+03 
7.382187e+01 6.724675e+01 -1.846841e+03 
7.347121e+01 6.999689e+01 -1.846138e+03 
7.312028e+01 7.271282e+01 -1.845559e+03 
7.284087e+01 7.534982e+01 -1.845042e+03 
7.256490e+01 7.798549e+01 -1.844497e+03 
7.236202e+01 8.057774e+01 -1.843929e+03 
7.219261e+01 8.315081e+01 -1.843412e+03 
7.206838e+01 8.573761e+01 -1.842896e+03 
7.201849e+01 8.831843e+01 -1.842505e+03 
7.202494e+01 9.084567e+01 -1.841982e+03 
7.208604e+01 9.331463e+01 -1.841498e+03 
7.218744e+01 9.576513e+01 -1.841120e+03 
7.229651e+01 9.809640e+01 -1.840846e+03 
7.243196e+01 1.003754e+02 -1.840514e+03 
7.262252e+01 1.025489e+02 -1.840404e+03 
7.283194e+01 1.046522e+02 -1.840344e+03 
7.304119e+01 1.066217e+02 -1.840254e+03 
7.332365e+01 1.085064e+02 -1.840335e+03 
7.360748e+01 1.102996e+02 -1.840618e+03 
7.394573e+01 1.119393e+02 -1.840819e+03 
7.428880e+01 1.135059e+02 -1.841120e+03 
7.465833e+01 1.149832e+02 -1.841570e+03 
7.508775e+01 1.163699e+02 -1.842029e+03 
7.556142e+01 1.176487e+02 -1.842462e+03 
7.605532e+01 1.188718e+02 -1.843054e+03 
7.662582e+01 1.200186e+02 -1.843694e+03 
7.722293e+01 1.211219e+02 -1.844311e+03 
7.785216e+01 1.221605e+02 -1.845044e+03 
7.854247e+01 1.231757e+02 -1.845761e+03 
7.928390e+01 1.241749e+02 -1.846573e+03 
8.003828e+01 1.251558e+02 -1.847487e+03 
8.087272e+01 1.261468e+02 -1.848547e+03 
8.174420e+01 1.270938e+02 -1.849505e+03 
8.268111e+01 1.280401e+02 -1.850583e+03 
8.366425e+01 1.290307e+02 -1.851767e+03 
8.470858e+01 1.300643e+02 -1.853076e+03 
8.578869e+01 1.310874e+02 -1.854340e+03 
8.694415e+01 1.321063e+02 -1.855699e+03 
8.811782e+01 1.331227e+02 -1.857169e+03 
8.928685e+01 1.341224e+02 -1.858793e+03 
9.045734e+01 1.350850e+02 -1.860567e+03 
9.168982e+01 1.359871e+02 -1.862380e+03 
9.294283e+01 1.367783e+02 -1.864234e+03 
9.425707e+01 1.375156e+02 -1.866103e+03 
9.559990e+01 1.381945e+02 -1.867974e+03 
9.701315e+01 1.388418e+02 -1.869908e+03 
9.848534e+01 1.394623e+02 -1.871837e+03 
1.000210e+02 1.400520e+02 -1.873694e+03 
1.016538e+02 1.406617e+02 -1.875597e+03 
1.033710e+02 1.412917e+02 -1.877515e+03 
1.051348e+02 1.419038e+02 -1.879340e+03 
1.070441e+02 1.425370e+02 -1.881169e+03 
1.089451e+02 1.431697e+02 -1.883031e+03 
1.108676e+02 1.437725e+02 -1.884861e+03 
1.129220e+02 1.443728e+02 -1.886871e+03 
1.149462e+02 1.448826e+02 -1.888793e+03 
1.169987e+02 1.453751e+02 -1.890819e+03 
1.191274e+02 1.458065e+02 -1.892914e+03 
1.212588e+02 1.461717e+02 -1.895099e+03 
1.233687e+02 1.464915e+02 -1.897412e+03 
1.255835e+02 1.467577e+02 -1.899738e+03 
1.277572e+02 1.469635e+02 -1.902094e+03 
1.300401e+02 1.471191e+02 -1.904526e+03 
1.322892e+02 1.472762e+02 -1.907022e+03 
1.346021e+02 1.474158e+02 -1.909511e+03 
1.369479e+02 1.475560e+02 -1.911994e+03 
1.393236e+02 1.477204e+02 -1.914628e+03 
1.416896e+02 1.479144e+02 -1.917325e+03 
1.441262e+02 1.481381e+02 -1.920075e+03 
1.465849e+02 1.483911e+02 -1.922877e+03 
1.490318e+02 1.486896e+02 -1.925792e+03 
1.514591e+02 1.490327e+02 -1.928766e+03 
1.539591e+02 1.493805e+02 -1.931757e+03 
1.563927e+02 1.497661e+02 -1.934944e+03 
1.588686e+02 1.501694e+02 -1.938237e+03 
1.613103e+02 1.505741e+02 -1.941544e+03 
1.638286e+02 1.510084e+02 -1.944943e+03 
1.662326e+02 1.514402e+02 -1.948365e+03 
1.687329e+02 1.518826e+02 -1.951850e+03 
1.712107e+02 1.523230e+02 -1.955226e+03 
1.737332e+02 1.528095e+02 -1.958689e+03 
1.762387e+02 1.533296e+02 -1.962145e+03 
1.787504e+02 1.539040e+02 -1.965640e+03 
1.812869e+02 1.544989e+02 -1.969083e+03 
1.838142e+02 1.551114e+02 -1.972583e+03 
1.863416e+02 1.557001e+02 -1.976032e+03 
1.888868e+02 1.562810e+02 -1.979477e+03 
1.913421e+02 1.568156e+02 -1.982908e+03 
1.938144e+02 1.573117e+02 -1.986482e+03 
1.962465e+02 1.576544e+02 -1.989865e+03 
1.987268e+02 1.579522e+02 -1.993379e+03 
2.010919e+02 1.581574e+02 -1.996746e+03 
2.034994e+02 1.583071e+02 -2.000145e+03 
2.058837e+02 1.583973e+02 -2.003632e+03 
2.080979e+02 1.584410e+02 -2.007046e+03 
2.103911e+02 1.584612e+02 -2.010419e+03 
2.126363e+02 1.584847e+02 -2.013797e+03 
2.148020e+02 1.585309e+02 -2.017109e+03 
2.169545e+02 1.586193e+02 -2.020444e+03 
2.190967e+02 1.587605e+02 -2.023680e+03 
2.211730e+02 1.589418e+02 -2.026910e+03 
2.231717e+02 1.591254e+02 -2.030155e+03 
2.251790e+02 1.593163e+02 -2.033395e+03 
2.271035e+02 1.595326e+02 -2.036665e+03 
2.289952e+02 1.597409e+02 -2.039833e+03 
2.308076e+02 1.599170e+02 -2.042928e+03 
2.325550e+02 1.600806e+02 -2.046090e+03 
2.342307e+02 1.601910e+02 -2.049241e+03 
2.358374e+02 1.602522e+02 -2.052277e+03 
2.373842e+02 1.602936e+02 -2.055231e+03 
2.389138e+02 1.603405e+02 -2.058097e+03 
2.404027e+02 1.603934e+02 -2.060930e+03 
2.418473e+02 1.604549e+02 -2.063645e+03 
2.432560e+02 1.605342e+02 -2.066279e+03 
2.446141e+02 1.606754e+02 -2.068890e+03 
2.459243e+02 1.608398e+02 -2.071448e+03 
2.472124e+02 1.610110e+02 -2.073932e+03 
2.484042e+02 1.611973e+02 -2.076386e+03 
2.495962e+02 1.613832e+02 -2.078767e+03 
2.507427e+02 1.615820e+02 -2.081096e+03 
2.517947e+02 1.618024e+02 -2.083291e+03 
2.528033e+02 1.620595e+02 -2.085513e+03 
2.537605e+02 1.623478e+02 -2.087687e+03 
2.546566e+02 1.626760e+02 -2.089775e+03 
2.555081e+02 1.630332e+02 -2.091759e+03 
2.563463e+02 1.634249e+02 -2.093743e+03 
2.571360e+02 1.638533e+02 -2.095620e+03 
2.578884e+02 1.643168e+02 -2.097389e+03 
2.586169e+02 1.648134e+02 -2.099099e+03 
2.593277e+02 1.653324e+02 -2.100771e+03 
2.600222e+02 1.658555e+02 -2.102310e+03 
2.610027e+02 1.663174e+02 -2.103442e+03 
2.619196e+02 1.667861e+02 -2.104434e+03 
2.629131e+02 1.672076e+02 -2.105217e+03 
2.636687e+02 1.676106e+02 -2.106102e+03 
2.644584e+02 1.679698e+02 -2.106862e+03 
2.651828e+02 1.683264e+02 -2.107552e+03 
2.658124e+02 1.686790e+02 -2.108130e+03 
2.664337e+02 1.690269e+02 -2.108712e+03 
2.669993e+02 1.693732e+02 -2.109288e+03 
2.675053e+02 1.696950e+02 -2.109701e+03 
2.679620e+02 1.700371e+02 -2.110143e+03 
2.683974e+02 1.703414e+02 -2.110588e+03 
2.687710e+02 1.706337e+02 -2.110980e+03 
2.691067e+02 1.708880e+02 -2.111329e+03 
2.693818e+02 1.711092e+02 -2.111604e+03 
2.696077e+02 1.712877e+02 -2.111816e+03 
2.698078e+02 1.714655e+02 -2.112093e+03 
2.699607e+02 1.715990e+02 -2.112290e+03 
2.700560e+02 1.716788e+02 -2.112391e+03 
2.701140e+02 1.717122e+02 -2.112440e+03 
2.701428e+02 1.717189e+02 -2.112459e+03 
2.701506e+02 1.717139e+02 -2.112479e+03 
2.701428e+02 1.717084e+02 -2.112481e+03 
2.701295e+02 1.717072e+02 -2.112466e+03 
2.701117e+02 1.717257e+02 -2.112451e+03 
2.700747e+02 1.717784e+02 -2.112410e+03 
2.700444e+02 1.718803e+02 -2.112366e+03 
2.699966e+02 1.720705e+02 -2.112329e+03 
2.699680e+02 1.722785e+02 -2.112328e+03 
2.699080e+02 1.725088e+02 -2.112250e+03 
2.698624e+02 1.727754e+02 -2.112196e+03 
2.698121e+02 1.730227e+02 -2.112137e+03 
2.697452e+02 1.732801e+02 -2.112060e+03 
2.696860e+02 1.734822e+02 -2.112050e+03 
2.696429e+02 1.736465e+02 -2.112045e+03 
2.695722e+02 1.738117e+02 -2.111958e+03 
2.695196e+02 1.739382e+02 -2.111911e+03 
2.694591e+02 1.740278e+02 -2.111879e+03 
2.694106e+02 1.740849e+02 -2.111870e+03 
2.693622e+02 1.741121e+02 -2.111835e+03 
2.693205e+02 1.741317e+02 -2.111802e+03 
2.692704e+02 1.741446e+02 -2.111752e+03 
2.692191e+02 1.741565e+02 -2.111719e+03 
2.691625e+02 1.741563e+02 -2.111651e+03 
2.691085e+02 1.741534e+02 -2.111609e+03 
2.690489e+02 1.741572e+02 -2.111561e+03 
2.689767e+02 1.741615e+02 -2.111486e+03 
2.689156e+02 1.741792e+02 -2.111440e+03 
2.688468e+02 1.742150e+02 -2.111375e+03 
2.687842e+02 1.742641e+02 -2.111334e+03 
2.687255e+02 1.743098e+02 -2.111260e+03 
2.686660e+02 1.743578e+02 -2.111180e+03 
2.686140e+02 1.744208e+02 -2.111134e+03 
2.685789e+02 1.744747e+02 -2.111084e+03 
2.685466e+02 1.745192e+02 -2.111048e+03 
2.685294e+02 1.745482e+02 -2.111023e+03 
2.685257e+02 1.745557e+02 -2.111003e+03 
2.685311e+02 1.745522e+02 -2.111008e+03 
2.685301e+02 1.745490e+02 -2.111013e+03 
2.685352e+02 1.745404e+02 -2.111014e+03 
2.685349e+02 1.745050e+02 -2.110998e+03 
2.685441e+02 1.744415e+02 -2.111022e+03 
2.685592e+02 1.743647e+02 -2.111064e+03 
2.685694e+02 1.742760e+02 -2.111098e+03 
2.685734e+02 1.741801e+02 -2.111124e+03 
2.685837e+02 1.741170e+02 -2.111139e+03 
2.685872e+02 1.740655e+02 -2.111130e+03 
2.685982e+02 1.740393e+02 -2.111125e+03 
2.686118e+02 1.740128e+02 -2.111132e+03 
2.686392e+02 1.739946e+02 -2.111130e+03 
2.686657e+02 1.739668e+02 -2.111149e+03 
2.686894e+02 1.739429e+02 -2.111150e+03 
2.687157e+02 1.739213e+02 -2.111170e+03 
2.687312e+02 1.738999e+02 -2.111165e+03 
2.687476e+02 1.738673e+02 -2.111178e+03 
2.687713e+02 1.738352e+02 -2.111205e+03 
2.687848e+02 1.737855e+02 -2.111228e+03 
2.688051e+02 1.737242e+02 -2.111275e+03 
2.688286e+02 1.736595e+02 -2.111328e+03 
2.688596e+02 1.736099e+02 -2.111376e+03 
2.688859e+02 1.735725e+02 -2.111399e+03 
2.689121e+02 1.735370e+02 -2.111407e+03 
2.689383e+02 1.734983e+02 -2.111427e+03 
2.689675e+02 1.734668e+02 -2.111435e+03 
2.689937e+02 1.734414e+02 -2.111451e+03 
2.690271e+02 1.734218e+02 -2.111463e+03 
2.690636e+02 1.734091e+02 -2.111474e+03 
2.690881e+02 1.734062e+02 -2.111500e+03 
2.690918e+02 1.734034e+02 -2.111505e+03 
2.690910e+02 1.733972e+02 -2.111494e+03 
2.690875e+02 1.734004e+02 -2.111509e+03 
2.690926e+02 1.733965e+02 -2.111513e+03 
2.690906e+02 1.733905e+02 -2.111522e+03 
2.690926e+02 1.733855e+02 -2.111507e+03 
2.690943e+02 1.733785e+02 -2.111522e+03 
2.691021e+02 1.733732e+02 -2.111518e+03 
2.691062e+02 1.733642e+02 -2.111499e+03 
2.691119e+02 1.733566e+02 -2.111502e+03 
2.691269e+02 1.733524e+02 -2.111503e+03 
2.691314e+02 1.733435e+02 -2.111494e+03 
2.691399e+02 1.733394e+02 -2.111487e+03 
2.691306e+02 1.733359e+02 -2.111494e+03 
2.691264e+02 1.733301e+02 -2.111472e+03 
2.691182e+02 1.733262e+02 -2.111480e+03 
2.691096e+02 1.733194e+02 -2.111469e+03 
2.690918e+02 1.733172e+02 -2.111469e+03 
2.690788e+02 1.733160e+02 -2.111453e+03 
2.690631e+02 1.733157e+02 -2.111431e+03 
2.690478e+02 1.733208e+02 -2.111418e+03 
2.690398e+02 1.733221e+02 -2.111407e+03 
2.690363e+02 1.733253e+02 -2.111389e+03 
2.690319e+02 1.733234e+02 -2.111387e+03 
2.690261e+02 1.733306e+02 -2.111380e+03 
2.690227e+02 1.733277e+02 -2.111369e+03 
2.690134e+02 1.733268e+02 -2.111354e+03 
2.690079e+02 1.733279e+02 -2.111340e+03 
2.690032e+02 1.733305e+02 -2.111342e+03 
2.689919e+02 1.733288e+02 -2.111337e+03 
2.689786e+02 1.733327e+02 -2.111330e+03 
2.689679e+02 1.733357e+02 -2.111343e+03 
2.689655e+02 1.733369e+02 -2.111342e+03 
2.689694e+02 1.733430e+02 -2.111344e+03 
2.689723e+02 1.733406e+02 -2.111332e+03 
2.689733e+02 1.733417e+02 -2.111339e+03 
2.689814e+02 1.733460e+02 -2.111332e+03 
2.689868e+02 1.733503e+02 -2.111336e+03 
2.690013e+02 1.733528e+02 -2.111336e+03 
2.690087e+02 1.733504e+02 -2.111330e+03 
2.690113e+02 1.733477e+02 -2.111330e+03 
2.690160e+02 1.733454e+02 -2.111335e+03 
2.690108e+02 1.733423e+02 -2.111333e+03 
2.689995e+02 1.733385e+02 -2.111337e+03 
2.689780e+02 1.733396e+02 -2.111335e+03 
2.689686e+02 1.733369e+02 -2.111320e+03 
2.689535e+02 1.733355e+02 -2.111309e+03 
2.689385e+02 1.733381e+02 -2.111300e+03 
2.689397e+02 1.733420e+02 -2.111296e+03 
2.689325e+02 1.733455e+02 -2.111281e+03 
2.689227e+02 1.733514e+02 -2.111270e+03 
2.689301e+02 1.733659e+02 -2.111283e+03 
2.689268e+02 1.733740e+02 -2.111263e+03 
2.689151e+02 1.733842e+02 -2.111256e+03 
2.689077e+02 1.733928e+02 -2.111251e+03 
2.688927e+02 1.734047e+02 -2.111241e+03 
2.688778e+02 1.734150e+02 -2.111244e+03 
2.688640e+02 1.734250e+02 -2.111224e+03 
2.688510e+02 1.734324e+02 -2.111221e+03 
2.688347e+02 1.734358e+02 -2.111216e+03 
2.688246e+02 1.734467e+02 -2.111225e+03 
2.688162e+02 1.734598e+02 -2.111202e+03 
2.687952e+02 1.734707e+02 -2.111182e+03 
2.687794e+02 1.734808e+02 -2.111144e+03 
2.687616e+02 1.734929e+02 -2.111121e+03 
2.687409e+02 1.735039e+02 -2.111088e+03 
2.687282e+02 1.735176e+02 -2.111071e+03 
2.687094e+02 1.735241e+02 -2.111042e+03 
2.686964e+02 1.735356e+02 -2.111022e+03 
2.686853e+02 1.735480e+02 -2.111020e+03 
2.686854e+02 1.735493e+02 -2.111029e+03 
2.686802e+02 1.735485e+02 -2.111017e+03 
2.686785e+02 1.735467e+02 -2.111020e+03 
2.686689e+02 1.735477e+02 -2.111016e+03 
2.686719e+02 1.735498e+02 -2.111022e+03 
2.686744e+02 1.735482e+02 -2.111031e+03 
2.686780e+02 1.735473e+02 -2.111029e+03 
2.686775e+02 1.735471e+02 -2.111028e+03 
2.686910e+02 1.735483e+02 -2.111034e+03 
2.687001e+02 1.735484e+02 -2.111029e+03 
2.687096e+02 1.735470e+02 -2.111014e+03 
2.687196e+02 1.735515e+02 -2.111033e+03 
2.687278e+02 1.735535e+02 -2.111043e+03 
2.687304e+02 1.735487e+02 -2.111045e+03 
2.687332e+02 1.735467e+02 -2.111048e+03 
2.687386e+02 1.735451e+02 -2.111066e+03 
2.687391e+02 1.735429e+02 -2.111055e+03 
2.687414e+02 1.735473e+02 -2.111072e+03 
2.687371e+02 1.735411e+02 -2.111059e+03 
2.687339e+02 1.735464e+02 -2.111063e+03 
2.687381e+02 1.735472e+02 -2.111071e+03 
2.687360e+02 1.735458e+02 -2.111056e+03 
2.687318e+02 1.735440e+02 -2.111053e+03 
2.687431e+02 1.735451e+02 -2.111051e+03 
2.687343e+02 1.735362e+02 -2.111034e+03 
2.687377e+02 1.735368e+02 -2.111028e+03 
2.687272e+02 1.735316e+02 -2.111037e+03 
2.687310e+02 1.735252e+02 -2.111026e+03 
2.687254e+02 1.735160e+02 -2.111016e+03 
2.687240e+02 1.735093e+02 -2.111003e+03 
2.687243e+02 1.735032e+02 -2.111000e+03 
2.687231e+02 1.735021e+02 -2.111006e+03 
2.687293e+02 1.734989e+02 -2.111007e+03 
2.687336e+02 1.734957e+02 -2.110987e+03 
2.687362e+02 1.734916e+02 -2.110977e+03 
2.687421e+02 1.734874e+02 -2.110975e+03 
2.687422e+02 1.734796e+02 -2.110964e+03 
2.687575e+02 1.734758e+02 -2.110956e+03 
2.687614e+02 1.734720e+02 -2.110948e+03 
2.687602e+02 1.734633e+02 -2.110935e+03 
2.687675e+02 1.734558e+02 -2.110929e+03 
2.687716e+02 1.734411e+02 -2.110928e+03 
2.687694e+02 1.734303e+02 -2.110909e+03 
2.687719e+02 1.734156e+02 -2.110907e+03 
2.687802e+02 1.733940e+02 -2.110885e+03 
2.687734e+02 1.733754e+02 -2.110873e+03 
2.687840e+02 1.733541e+02 -2.110867e+03 
2.687875e+02 1.733358e+02 -2.110857e+03 
