2.426881e+02 -4.475619e+02 -2.093735e+03 
2.426917e+02 -4.475619e+02 -2.093724e+03 
2.426931e+02 -4.475589e+02 -2.093702e+03 
2.426895e+02 -4.475644e+02 -2.093689e+03 
2.426931e+02 -4.475617e+02 -2.093702e+03 
2.426941e+02 -4.475605e+02 -2.093704e+03 
2.426946e+02 -4.475637e+02 -2.093681e+03 
2.426976e+02 -4.475650e+02 -2.093722e+03 
2.426934e+02 -4.475636e+02 -2.093715e+03 
2.426924e+02 -4.475685e+02 -2.093720e+03 
2.426905e+02 -4.475680e+02 -2.093731e+03 
2.426821e+02 -4.475681e+02 -2.093690e+03 
2.426806e+02 -4.475642e+02 -2.093689e+03 
2.426809e+02 -4.475684e+02 -2.093693e+03 
2.426829e+02 -4.475655e+02 -2.093713e+03 
2.426853e+02 -4.475656e+02 -2.093733e+03 
2.426929e+02 -4.475674e+02 -2.093729e+03 
2.426922e+02 -4.475633e+02 -2.093703e+03 
2.426934e+02 -4.475616e+02 -2.093701e+03 
2.427016e+02 -4.475598e+02 -2.093706e+03 
2.427039e+02 -4.475646e+02 -2.093729e+03 
2.427077e+02 -4.475616e+02 -2.093730e+03 
2.427047e+02 -4.475670e+02 -2.093731e+03 
2.426964e+02 -4.475598e+02 -2.093693e+03 
2.426970e+02 -4.475612e+02 -2.093723e+03 
2.426974e+02 -4.475614e+02 -2.093726e+03 
2.426935e+02 -4.475607e+02 -2.093717e+03 
2.426881e+02 -4.475621e+02 -2.093703e+03 
2.426952e+02 -4.475685e+02 -2.093734e+03 
2.426829e+02 -4.475633e+02 -2.093706e+03 
2.426849e+02 -4.475603e+02 -2.093696e+03 
2.426915e+02 -4.475625e+02 -2.093725e+03 
2.426949e+02 -4.475661e+02 -2.093735e+03 
2.426939e+02 -4.475570e+02 -2.093709e+03 
2.426929e+02 -4.475717e+02 -2.093721e+03 
2.426823e+02 -4.475872e+02 -2.093719e+03 
2.426648e+02 -4.476049e+02 -2.093699e+03 
2.426486e+02 -4.476116e+02 -2.093667e+03 
2.426353e+02 -4.476218e+02 -2.093666e+03 
2.426305e+02 -4.476309e+02 -2.093669e+03 
2.426208e+02 -4.476454e+02 -2.093638e+03 
2.426008e+02 -4.476549e+02 -2.093636e+03 
2.425826e+02 -4.476647e+02 -2.093633e+03 
2.425720e+02 -4.476748e+02 -2.093618e+03 
2.425637e+02 -4.476749e+02 -2.093628e+03 
2.425524e+02 -4.476898e+02 -2.093602e+03 
2.425488e+02 -4.477003e+02 -2.093619e+03 
2.425322e+02 -4.477000e+02 -2.093580e+03 
2.425320e+02 -4.477061e+02 -2.093572e+03 
2.425199e+02 -4.477095e+02 -2.093568e+03 
2.425248e+02 -4.477117e+02 -2.093569e+03 
2.425146e+02 -4.477155e+02 -2.093562e+03 
2.425155e+02 -4.477186e+02 -2.093552e+03 
2.425058e+02 -4.477243e+02 -2.093549e+03 
2.425010e+02 -4.477220e+02 -2.093552e+03 
2.424984e+02 -4.477313e+02 -2.093543e+03 
2.425003e+02 -4.477365e+02 -2.093570e+03 
2.424979e+02 -4.477355e+02 -2.093561e+03 
2.424994e+02 -4.477351e+02 -2.093549e+03 
2.424963e+02 -4.477354e+02 -2.093535e+03 
2.424975e+02 -4.477347e+02 -2.093536e+03 
2.425016e+02 -4.477379e+02 -2.093557e+03 
2.425007e+02 -4.477363e+02 -2.093568e+03 
2.424984e+02 -4.477358e+02 -2.093552e+03 
2.425035e+02 -4.477291e+02 -2.093548e+03 
2.424995e+02 -4.477327e+02 -2.093568e+03 
2.425049e+02 -4.477336e+02 -2.093562e+03 
2.424966e+02 -4.477233e+02 -2.093524e+03 
2.425043e+02 -4.477219e+02 -2.093556e+03 
2.425067e+02 -4.477121e+02 -2.093561e+03 
2.425194e+02 -4.477050e+02 -2.093572e+03 
2.425334e+02 -4.476926e+02 -2.093586e+03 
2.425380e+02 -4.476797e+02 -2.093571e+03 
2.425487e+02 -4.476793e+02 -2.093586e+03 
2.425574e+02 -4.476640e+02 -2.093587e+03 
2.425535e+02 -4.476554e+02 -2.093591e+03 
2.425672e+02 -4.476395e+02 -2.093604e+03 
2.425765e+02 -4.476259e+02 -2.093620e+03 
2.425864e+02 -4.476143e+02 -2.093626e+03 
2.425939e+02 -4.476123e+02 -2.093660e+03 
2.426013e+02 -4.475925e+02 -2.093647e+03 
2.426133e+02 -4.475867e+02 -2.093674e+03 
2.426262e+02 -4.475681e+02 -2.093671e+03 
2.426409e+02 -4.475605e+02 -2.093697e+03 
2.426547e+02 -4.475427e+02 -2.093690e+03 
2.426599e+02 -4.475260e+02 -2.093693e+03 
2.426722e+02 -4.475231e+02 -2.093694e+03 
2.426744e+02 -4.475118e+02 -2.093694e+03 
2.426738e+02 -4.475007e+02 -2.093685e+03 
2.426752e+02 -4.474892e+02 -2.093682e+03 
2.426800e+02 -4.474751e+02 -2.093714e+03 
2.426758e+02 -4.474619e+02 -2.093702e+03 
2.426880e+02 -4.474581e+02 -2.093747e+03 
2.426871e+02 -4.474481e+02 -2.093722e+03 
2.426890e+02 -4.474435e+02 -2.093707e+03 
2.426942e+02 -4.474391e+02 -2.093731e+03 
2.427041e+02 -4.474405e+02 -2.093744e+03 
2.427068e+02 -4.474400e+02 -2.093741e+03 
2.427157e+02 -4.474393e+02 -2.093748e+03 
2.427119e+02 -4.474393e+02 -2.093746e+03 
2.427115e+02 -4.474355e+02 -2.093734e+03 
2.427114e+02 -4.474371e+02 -2.093723e+03 
2.427126e+02 -4.474359e+02 -2.093719e+03 
2.427044e+02 -4.474432e+02 -2.093737e+03 
2.427024e+02 -4.474416e+02 -2.093734e+03 
2.426948e+02 -4.474456e+02 -2.093731e+03 
2.426911e+02 -4.474447e+02 -2.093722e+03 
2.426905e+02 -4.474477e+02 -2.093723e+03 
2.426922e+02 -4.474443e+02 -2.093742e+03 
2.426942e+02 -4.474458e+02 -2.093708e+03 
2.427021e+02 -4.474527e+02 -2.093757e+03 
2.427056e+02 -4.474515e+02 -2.093729e+03 
2.427017e+02 -4.474549e+02 -2.093743e+03 
2.427050e+02 -4.474526e+02 -2.093728e+03 
2.427142e+02 -4.474443e+02 -2.093711e+03 
2.427207e+02 -4.474544e+02 -2.093779e+03 
2.427102e+02 -4.474496e+02 -2.093712e+03 
2.427137e+02 -4.474438e+02 -2.093716e+03 
2.427087e+02 -4.474464e+02 -2.093739e+03 
2.427002e+02 -4.474450e+02 -2.093741e+03 
2.426980e+02 -4.474386e+02 -2.093723e+03 
2.426973e+02 -4.474428e+02 -2.093710e+03 
2.426886e+02 -4.474423e+02 -2.093711e+03 
2.426980e+02 -4.474451e+02 -2.093735e+03 
2.426991e+02 -4.474409e+02 -2.093741e+03 
2.427096e+02 -4.474304e+02 -2.093729e+03 
2.427366e+02 -4.474340e+02 -2.093786e+03 
2.427556e+02 -4.474237e+02 -2.093779e+03 
2.427807e+02 -4.474280e+02 -2.093801e+03 
2.427979e+02 -4.474191e+02 -2.093813e+03 
2.428351e+02 -4.474162e+02 -2.093822e+03 
2.428674e+02 -4.474189e+02 -2.093892e+03 
2.428903e+02 -4.474070e+02 -2.093885e+03 
2.429396e+02 -4.473860e+02 -2.093898e+03 
2.429819e+02 -4.473445e+02 -2.093951e+03 
2.430389e+02 -4.472901e+02 -2.093959e+03 
2.430953e+02 -4.472239e+02 -2.093928e+03 
2.431438e+02 -4.471381e+02 -2.093914e+03 
2.431975e+02 -4.470412e+02 -2.093915e+03 
2.432527e+02 -4.469167e+02 -2.093861e+03 
2.433161e+02 -4.467454e+02 -2.093744e+03 
2.434406e+02 -4.465397e+02 -2.093695e+03 
2.436049e+02 -4.463283e+02 -2.093650e+03 
2.437372e+02 -4.460587e+02 -2.093359e+03 
2.439309e+02 -4.458004e+02 -2.093070e+03 
2.442231e+02 -4.455233e+02 -2.092740e+03 
2.445037e+02 -4.452212e+02 -2.092311e+03 
2.448347e+02 -4.448704e+02 -2.091789e+03 
2.452396e+02 -4.444734e+02 -2.091170e+03 
2.456156e+02 -4.439832e+02 -2.090461e+03 
2.459766e+02 -4.434037e+02 -2.089603e+03 
2.463823e+02 -4.427626e+02 -2.088827e+03 
2.468233e+02 -4.420370e+02 -2.088117e+03 
2.471110e+02 -4.411081e+02 -2.087195e+03 
2.473326e+02 -4.400329e+02 -2.086334e+03 
2.476183e+02 -4.389203e+02 -2.085595e+03 
2.478170e+02 -4.377119e+02 -2.084914e+03 
2.481250e+02 -4.364282e+02 -2.084184e+03 
2.482466e+02 -4.350877e+02 -2.083464e+03 
2.484823e+02 -4.335954e+02 -2.082654e+03 
2.485491e+02 -4.320090e+02 -2.081856e+03 
2.486232e+02 -4.303292e+02 -2.081263e+03 
2.487640e+02 -4.285855e+02 -2.080721e+03 
2.488179e+02 -4.267456e+02 -2.080231e+03 
2.487740e+02 -4.247964e+02 -2.079504e+03 
2.487755e+02 -4.228152e+02 -2.079169e+03 
2.487964e+02 -4.207005e+02 -2.078549e+03 
2.488011e+02 -4.185380e+02 -2.077917e+03 
2.488309e+02 -4.163772e+02 -2.077477e+03 
2.488010e+02 -4.140454e+02 -2.076982e+03 
2.487745e+02 -4.117414e+02 -2.076720e+03 
2.487643e+02 -4.091902e+02 -2.075958e+03 
2.488651e+02 -4.065729e+02 -2.075219e+03 
2.489527e+02 -4.039208e+02 -2.074715e+03 
2.488826e+02 -4.009995e+02 -2.073907e+03 
2.489496e+02 -3.980150e+02 -2.073358e+03 
2.490435e+02 -3.949011e+02 -2.072634e+03 
2.490530e+02 -3.916338e+02 -2.071994e+03 
2.489496e+02 -3.882602e+02 -2.071242e+03 
2.488218e+02 -3.847167e+02 -2.070425e+03 
2.486725e+02 -3.811492e+02 -2.069827e+03 
2.485090e+02 -3.774320e+02 -2.069167e+03 
2.482773e+02 -3.735576e+02 -2.068707e+03 
2.478947e+02 -3.695761e+02 -2.068039e+03 
2.474550e+02 -3.655161e+02 -2.067510e+03 
2.470909e+02 -3.612951e+02 -2.066911e+03 
2.464966e+02 -3.569967e+02 -2.066216e+03 
2.460185e+02 -3.525446e+02 -2.065702e+03 
2.454303e+02 -3.478497e+02 -2.064748e+03 
2.448028e+02 -3.431336e+02 -2.064426e+03 
2.441205e+02 -3.383037e+02 -2.063869e+03 
2.434710e+02 -3.333216e+02 -2.063187e+03 
2.427789e+02 -3.282407e+02 -2.062464e+03 
2.420910e+02 -3.230619e+02 -2.061727e+03 
2.414111e+02 -3.178131e+02 -2.061323e+03 
2.406983e+02 -3.125113e+02 -2.060690e+03 
2.400317e+02 -3.070802e+02 -2.060157e+03 
2.393475e+02 -3.016468e+02 -2.059682e+03 
2.386842e+02 -2.961470e+02 -2.058965e+03 
2.380729e+02 -2.905808e+02 -2.058480e+03 
2.375169e+02 -2.849385e+02 -2.058239e+03 
2.368699e+02 -2.792149e+02 -2.057637e+03 
2.362590e+02 -2.734225e+02 -2.057205e+03 
2.356624e+02 -2.675748e+02 -2.056514e+03 
2.351416e+02 -2.616797e+02 -2.056214e+03 
2.345373e+02 -2.557174e+02 -2.055483e+03 
2.340674e+02 -2.497440e+02 -2.055196e+03 
2.336338e+02 -2.437595e+02 -2.054786e+03 
2.332063e+02 -2.377102e+02 -2.054257e+03 
2.328513e+02 -2.317207e+02 -2.053849e+03 
2.325821e+02 -2.257345e+02 -2.053417e+03 
2.323438e+02 -2.197819e+02 -2.053025e+03 
2.321607e+02 -2.138484e+02 -2.052353e+03 
2.320869e+02 -2.079747e+02 -2.052122e+03 
2.320271e+02 -2.020578e+02 -2.051624e+03 
2.320332e+02 -1.961852e+02 -2.051287e+03 
2.320156e+02 -1.902919e+02 -2.050826e+03 
2.320531e+02 -1.844216e+02 -2.050702e+03 
2.321052e+02 -1.784951e+02 -2.050356e+03 
2.321502e+02 -1.725986e+02 -2.050130e+03 
2.321828e+02 -1.666876e+02 -2.049954e+03 
2.321867e+02 -1.607799e+02 -2.049773e+03 
2.321716e+02 -1.549055e+02 -2.049691e+03 
2.321582e+02 -1.490511e+02 -2.049908e+03 
2.321272e+02 -1.432245e+02 -2.049996e+03 
2.320604e+02 -1.374111e+02 -2.049922e+03 
2.320197e+02 -1.316047e+02 -2.050250e+03 
2.319668e+02 -1.258723e+02 -2.050557e+03 
2.319171e+02 -1.201575e+02 -2.050851e+03 
2.318584e+02 -1.145203e+02 -2.051094e+03 
2.318677e+02 -1.088945e+02 -2.051532e+03 
2.318724e+02 -1.032830e+02 -2.051713e+03 
2.319255e+02 -9.766427e+01 -2.052088e+03 
2.320141e+02 -9.206339e+01 -2.052422e+03 
2.321704e+02 -8.648277e+01 -2.052806e+03 
2.323786e+02 -8.091164e+01 -2.053097e+03 
2.326512e+02 -7.532781e+01 -2.053450e+03 
2.329933e+02 -6.978526e+01 -2.053783e+03 
2.333705e+02 -6.425869e+01 -2.054102e+03 
2.337990e+02 -5.880054e+01 -2.054411e+03 
2.342216e+02 -5.335294e+01 -2.054722e+03 
2.346650e+02 -4.798463e+01 -2.054986e+03 
2.351640e+02 -4.265920e+01 -2.055397e+03 
2.356470e+02 -3.737048e+01 -2.055782e+03 
2.361266e+02 -3.210376e+01 -2.056277e+03 
2.365860e+02 -2.689907e+01 -2.056592e+03 
2.371043e+02 -2.171429e+01 -2.057066e+03 
2.375841e+02 -1.656256e+01 -2.057553e+03 
2.380432e+02 -1.146459e+01 -2.057996e+03 
2.385296e+02 -6.358967e+00 -2.058511e+03 
2.390424e+02 -1.330462e+00 -2.059192e+03 
2.395483e+02 3.650610e+00 -2.059710e+03 
2.400925e+02 8.568320e+00 -2.060300e+03 
2.406823e+02 1.340962e+01 -2.060898e+03 
2.412649e+02 1.821260e+01 -2.061389e+03 
2.419031e+02 2.293602e+01 -2.062003e+03 
2.425719e+02 2.756912e+01 -2.062484e+03 
2.432601e+02 3.213675e+01 -2.062993e+03 
2.439752e+02 3.665602e+01 -2.063485e+03 
2.446974e+02 4.113256e+01 -2.063961e+03 
2.454352e+02 4.553411e+01 -2.064366e+03 
2.461739e+02 4.991804e+01 -2.064764e+03 
2.469485e+02 5.423888e+01 -2.065240e+03 
2.477416e+02 5.851784e+01 -2.065591e+03 
2.485637e+02 6.276181e+01 -2.066018e+03 
2.493677e+02 6.692781e+01 -2.066451e+03 
2.501652e+02 7.098195e+01 -2.066825e+03 
2.509446e+02 7.497078e+01 -2.067178e+03 
2.517273e+02 7.886787e+01 -2.067620e+03 
2.524966e+02 8.266638e+01 -2.067986e+03 
2.532771e+02 8.638361e+01 -2.068386e+03 
2.540081e+02 8.996930e+01 -2.068564e+03 
2.547795e+02 9.348430e+01 -2.068964e+03 
2.555627e+02 9.686932e+01 -2.069268e+03 
2.563275e+02 1.001685e+02 -2.069613e+03 
2.570840e+02 1.033509e+02 -2.069812e+03 
2.578288e+02 1.064619e+02 -2.070029e+03 
2.585482e+02 1.095036e+02 -2.070380e+03 
2.592271e+02 1.124545e+02 -2.070597e+03 
2.599134e+02 1.153186e+02 -2.070799e+03 
2.605957e+02 1.181144e+02 -2.071166e+03 
2.612076e+02 1.208037e+02 -2.071345e+03 
2.618214e+02 1.234477e+02 -2.071668e+03 
2.623954e+02 1.260208e+02 -2.071962e+03 
2.629059e+02 1.285360e+02 -2.072354e+03 
2.633750e+02 1.309794e+02 -2.072703e+03 
2.637732e+02 1.333596e+02 -2.073001e+03 
2.641393e+02 1.356733e+02 -2.073406e+03 
2.644694e+02 1.379477e+02 -2.073860e+03 
2.647718e+02 1.401395e+02 -2.074218e+03 
2.650356e+02 1.422712e+02 -2.074664e+03 
2.652843e+02 1.443380e+02 -2.075083e+03 
2.655031e+02 1.463411e+02 -2.075413e+03 
2.657189e+02 1.482849e+02 -2.075885e+03 
2.658957e+02 1.501718e+02 -2.076294e+03 
2.660644e+02 1.519951e+02 -2.076713e+03 
2.662243e+02 1.537588e+02 -2.077103e+03 
2.663872e+02 1.555052e+02 -2.077530e+03 
2.665397e+02 1.572011e+02 -2.077928e+03 
2.666674e+02 1.588285e+02 -2.078197e+03 
2.668082e+02 1.604326e+02 -2.078669e+03 
2.669471e+02 1.619930e+02 -2.079114e+03 
2.670647e+02 1.634823e+02 -2.079445e+03 
2.671776e+02 1.649062e+02 -2.079821e+03 
2.672909e+02 1.662863e+02 -2.080198e+03 
2.674070e+02 1.675837e+02 -2.080518e+03 
2.675320e+02 1.688097e+02 -2.080928e+03 
2.676468e+02 1.699702e+02 -2.081280e+03 
2.677425e+02 1.710166e+02 -2.081599e+03 
2.678171e+02 1.719757e+02 -2.081974e+03 
2.678633e+02 1.728346e+02 -2.082371e+03 
2.678656e+02 1.735809e+02 -2.082771e+03 
2.678238e+02 1.742187e+02 -2.083197e+03 
2.677397e+02 1.747572e+02 -2.083565e+03 
2.676123e+02 1.751875e+02 -2.083923e+03 
2.674414e+02 1.755517e+02 -2.084336e+03 
2.672606e+02 1.758349e+02 -2.084786e+03 
2.670528e+02 1.760365e+02 -2.085175e+03 
2.668185e+02 1.761829e+02 -2.085561e+03 
2.665959e+02 1.762789e+02 -2.085937e+03 
2.663372e+02 1.763256e+02 -2.086279e+03 
2.661140e+02 1.763316e+02 -2.086575e+03 
2.658694e+02 1.763048e+02 -2.086840e+03 
2.656508e+02 1.762458e+02 -2.087076e+03 
2.654472e+02 1.761666e+02 -2.087287e+03 
2.652431e+02 1.760708e+02 -2.087486e+03 
2.650670e+02 1.759649e+02 -2.087619e+03 
2.649024e+02 1.758520e+02 -2.087728e+03 
2.647480e+02 1.757408e+02 -2.087846e+03 
2.646142e+02 1.756311e+02 -2.087947e+03 
2.644941e+02 1.755267e+02 -2.088059e+03 
2.643814e+02 1.754254e+02 -2.088125e+03 
2.642669e+02 1.753174e+02 -2.088202e+03 
2.641587e+02 1.752069e+02 -2.088283e+03 
2.640403e+02 1.750889e+02 -2.088409e+03 
2.639388e+02 1.749645e+02 -2.088573e+03 
2.638161e+02 1.748320e+02 -2.088744e+03 
2.636752e+02 1.746793e+02 -2.088963e+03 
2.635149e+02 1.745005e+02 -2.089209e+03 
2.633429e+02 1.743031e+02 -2.089462e+03 
2.631507e+02 1.740912e+02 -2.089781e+03 
2.629217e+02 1.738582e+02 -2.090114e+03 
2.626908e+02 1.736005e+02 -2.090457e+03 
2.624225e+02 1.733450e+02 -2.090823e+03 
2.621721e+02 1.730914e+02 -2.091253e+03 
2.618866e+02 1.728501e+02 -2.091615e+03 
2.616233e+02 1.726331e+02 -2.092041e+03 
2.613463e+02 1.724547e+02 -2.092470e+03 
2.610980e+02 1.723089e+02 -2.092919e+03 
2.608455e+02 1.721988e+02 -2.093347e+03 
2.606169e+02 1.721216e+02 -2.093719e+03 
2.604220e+02 1.720786e+02 -2.094106e+03 
2.602473e+02 1.720513e+02 -2.094490e+03 
2.601116e+02 1.720397e+02 -2.094861e+03 
2.599937e+02 1.720448e+02 -2.095206e+03 
2.598844e+02 1.720606e+02 -2.095537e+03 
2.597831e+02 1.720813e+02 -2.095856e+03 
2.596959e+02 1.720950e+02 -2.096197e+03 
2.596095e+02 1.720958e+02 -2.096534e+03 
2.595038e+02 1.720808e+02 -2.096887e+03 
2.593936e+02 1.720511e+02 -2.097258e+03 
2.592711e+02 1.720000e+02 -2.097626e+03 
2.591482e+02 1.719264e+02 -2.097990e+03 
2.590088e+02 1.718282e+02 -2.098383e+03 
2.588628e+02 1.717011e+02 -2.098807e+03 
2.587131e+02 1.715623e+02 -2.099190e+03 
2.585608e+02 1.713916e+02 -2.099650e+03 
2.583882e+02 1.712004e+02 -2.100077e+03 
2.583128e+02 1.709975e+02 -2.100376e+03 
2.583271e+02 1.708081e+02 -2.100595e+03 
2.584197e+02 1.706544e+02 -2.100689e+03 
2.585171e+02 1.704967e+02 -2.100779e+03 
2.585943e+02 1.703344e+02 -2.100872e+03 
2.586681e+02 1.701957e+02 -2.100957e+03 
2.587519e+02 1.700843e+02 -2.101040e+03 
2.588286e+02 1.699919e+02 -2.101157e+03 
2.589259e+02 1.699275e+02 -2.101271e+03 
2.590186e+02 1.698902e+02 -2.101391e+03 
2.591188e+02 1.698783e+02 -2.101505e+03 
2.592222e+02 1.698914e+02 -2.101640e+03 
2.593471e+02 1.699256e+02 -2.101753e+03 
2.594755e+02 1.699675e+02 -2.101872e+03 
2.596164e+02 1.700149e+02 -2.102000e+03 
2.597505e+02 1.700708e+02 -2.102143e+03 
2.598910e+02 1.701253e+02 -2.102289e+03 
2.600330e+02 1.701709e+02 -2.102452e+03 
2.601837e+02 1.702094e+02 -2.102618e+03 
2.603265e+02 1.702275e+02 -2.102766e+03 
2.604548e+02 1.702398e+02 -2.102899e+03 
2.605752e+02 1.702457e+02 -2.103055e+03 
2.606909e+02 1.702410e+02 -2.103177e+03 
2.608110e+02 1.702424e+02 -2.103307e+03 
2.609362e+02 1.702274e+02 -2.103428e+03 
2.610558e+02 1.702044e+02 -2.103559e+03 
2.611855e+02 1.701726e+02 -2.103683e+03 
2.613067e+02 1.701296e+02 -2.103811e+03 
2.614320e+02 1.701063e+02 -2.103952e+03 
2.615438e+02 1.701132e+02 -2.104080e+03 
2.616504e+02 1.701667e+02 -2.104182e+03 
2.617452e+02 1.701883e+02 -2.104197e+03 
2.617796e+02 1.702197e+02 -2.104259e+03 
2.617788e+02 1.702125e+02 -2.104292e+03 
2.617793e+02 1.702145e+02 -2.104306e+03 
2.617712e+02 1.702369e+02 -2.104287e+03 
2.617398e+02 1.702674e+02 -2.104269e+03 
2.616931e+02 1.703197e+02 -2.104237e+03 
2.616526e+02 1.703833e+02 -2.104194e+03 
2.616020e+02 1.704462e+02 -2.104178e+03 
2.615611e+02 1.704952e+02 -2.104138e+03 
2.615247e+02 1.705396e+02 -2.104117e+03 
2.614884e+02 1.705829e+02 -2.104095e+03 
2.614482e+02 1.706128e+02 -2.104044e+03 
2.614152e+02 1.706347e+02 -2.104021e+03 
2.613678e+02 1.706442e+02 -2.103962e+03 
2.613174e+02 1.706497e+02 -2.103927e+03 
2.612688e+02 1.706475e+02 -2.103871e+03 
2.612247e+02 1.706385e+02 -2.103835e+03 
2.611731e+02 1.706164e+02 -2.103789e+03 
2.611361e+02 1.705940e+02 -2.103764e+03 
2.610957e+02 1.705654e+02 -2.103724e+03 
2.610566e+02 1.705365e+02 -2.103692e+03 
2.610191e+02 1.705042e+02 -2.103660e+03 
2.609917e+02 1.704690e+02 -2.103624e+03 
2.609727e+02 1.704360e+02 -2.103606e+03 
2.609606e+02 1.704028e+02 -2.103592e+03 
2.609548e+02 1.703782e+02 -2.103593e+03 
2.609461e+02 1.703506e+02 -2.103577e+03 
2.609362e+02 1.703158e+02 -2.103578e+03 
2.609324e+02 1.702849e+02 -2.103586e+03 
2.609275e+02 1.702651e+02 -2.103567e+03 
2.609233e+02 1.702538e+02 -2.103583e+03 
2.609154e+02 1.702448e+02 -2.103583e+03 
2.609093e+02 1.702281e+02 -2.103582e+03 
2.609017e+02 1.702143e+02 -2.103589e+03 
2.609131e+02 1.702008e+02 -2.103594e+03 
2.609144e+02 1.701930e+02 -2.103594e+03 
2.609225e+02 1.701845e+02 -2.103596e+03 
2.609306e+02 1.701745e+02 -2.103603e+03 
2.609407e+02 1.701526e+02 -2.103604e+03 
2.609465e+02 1.701149e+02 -2.103605e+03 
2.609509e+02 1.700621e+02 -2.103595e+03 
2.609576e+02 1.700034e+02 -2.103599e+03 
2.609523e+02 1.699294e+02 -2.103593e+03 
2.609553e+02 1.698641e+02 -2.103611e+03 
2.609434e+02 1.698087e+02 -2.103609e+03 
2.609374e+02 1.697414e+02 -2.103620e+03 
2.609318e+02 1.696661e+02 -2.103629e+03 
2.609213e+02 1.695881e+02 -2.103626e+03 
2.609135e+02 1.695064e+02 -2.103609e+03 
2.609130e+02 1.694283e+02 -2.103590e+03 
2.609136e+02 1.693459e+02 -2.103561e+03 
2.609116e+02 1.692585e+02 -2.103553e+03 
2.609113e+02 1.691737e+02 -2.103552e+03 
2.609112e+02 1.690906e+02 -2.103538e+03 
2.609025e+02 1.690078e+02 -2.103553e+03 
2.609023e+02 1.689247e+02 -2.103541e+03 
2.608942e+02 1.688546e+02 -2.103526e+03 
2.608948e+02 1.687988e+02 -2.103513e+03 
2.608857e+02 1.687631e+02 -2.103524e+03 
2.608886e+02 1.687311e+02 -2.103522e+03 
2.608829e+02 1.687122e+02 -2.103524e+03 
2.608861e+02 1.687042e+02 -2.103537e+03 
2.608843e+02 1.687023e+02 -2.103536e+03 
2.608947e+02 1.687021e+02 -2.103535e+03 
2.609010e+02 1.687001e+02 -2.103537e+03 
2.609119e+02 1.686996e+02 -2.103533e+03 
2.609159e+02 1.686995e+02 -2.103525e+03 
2.609190e+02 1.686981e+02 -2.103518e+03 
2.609188e+02 1.687009e+02 -2.103530e+03 
2.609191e+02 1.686988e+02 -2.103521e+03 
2.609167e+02 1.686972e+02 -2.103524e+03 
2.609141e+02 1.686914e+02 -2.103521e+03 
2.609033e+02 1.686944e+02 -2.103533e+03 
2.608987e+02 1.686943e+02 -2.103535e+03 
2.608870e+02 1.686949e+02 -2.103527e+03 
2.608878e+02 1.686972e+02 -2.103525e+03 
2.608834e+02 1.686942e+02 -2.103519e+03 
2.608863e+02 1.686970e+02 -2.103521e+03 
2.608953e+02 1.686931e+02 -2.103510e+03 
2.609099e+02 1.686842e+02 -2.103526e+03 
2.609261e+02 1.686628e+02 -2.103528e+03 
2.609353e+02 1.686254e+02 -2.103520e+03 
2.609498e+02 1.685882e+02 -2.103539e+03 
2.609600e+02 1.685459e+02 -2.103560e+03 
2.609572e+02 1.685001e+02 -2.103561e+03 
2.609580e+02 1.684432e+02 -2.103584e+03 
2.609657e+02 1.683797e+02 -2.103605e+03 
2.609697e+02 1.683053e+02 -2.103633e+03 
2.609684e+02 1.682217e+02 -2.103626e+03 
2.609720e+02 1.681317e+02 -2.103621e+03 
2.609821e+02 1.680607e+02 -2.103605e+03 
2.609957e+02 1.680095e+02 -2.103610e+03 
2.610013e+02 1.679613e+02 -2.103591e+03 
2.610158e+02 1.679290e+02 -2.103589e+03 
2.610284e+02 1.679036e+02 -2.103607e+03 
2.610391e+02 1.678804e+02 -2.103598e+03 
2.610421e+02 1.678728e+02 -2.103604e+03 
2.610400e+02 1.678720e+02 -2.103610e+03 
2.610336e+02 1.678661e+02 -2.103602e+03 
2.610330e+02 1.678637e+02 -2.103616e+03 
2.610289e+02 1.678613e+02 -2.103614e+03 
2.610255e+02 1.678572e+02 -2.103624e+03 
2.610212e+02 1.678578e+02 -2.103622e+03 
2.610176e+02 1.678560e+02 -2.103620e+03 
2.610103e+02 1.678558e+02 -2.103602e+03 
2.610182e+02 1.678569e+02 -2.103614e+03 
2.610252e+02 1.678551e+02 -2.103617e+03 
2.610306e+02 1.678551e+02 -2.103605e+03 
2.610408e+02 1.678537e+02 -2.103608e+03 
2.610454e+02 1.678540e+02 -2.103617e+03 
2.610474e+02 1.678531e+02 -2.103608e+03 
2.610515e+02 1.678521e+02 -2.103614e+03 
2.610434e+02 1.678528e+02 -2.103608e+03 
2.610330e+02 1.678424e+02 -2.103601e+03 
2.610310e+02 1.678395e+02 -2.103625e+03 
2.610334e+02 1.678271e+02 -2.103621e+03 
2.610312e+02 1.678100e+02 -2.103633e+03 
2.610349e+02 1.677856e+02 -2.103634e+03 
2.610394e+02 1.677590e+02 -2.103637e+03 
2.610512e+02 1.677251e+02 -2.103659e+03 
2.610651e+02 1.676937e+02 -2.103672e+03 
2.610779e+02 1.676795e+02 -2.103664e+03 
2.610909e+02 1.676718e+02 -2.103679e+03 
2.610962e+02 1.676626e+02 -2.103681e+03 
2.611066e+02 1.676563e+02 -2.103688e+03 
2.611090e+02 1.676455e+02 -2.103698e+03 
2.611153e+02 1.676295e+02 -2.103701e+03 
2.611107e+02 1.676134e+02 -2.103706e+03 
2.611097e+02 1.676030e+02 -2.103709e+03 
2.611024e+02 1.675853e+02 -2.103710e+03 
2.611013e+02 1.675599e+02 -2.103718e+03 
2.611064e+02 1.675375e+02 -2.103718e+03 
2.611120e+02 1.675183e+02 -2.103703e+03 
2.611179e+02 1.674969e+02 -2.103706e+03 
2.611261e+02 1.674670e+02 -2.103691e+03 
2.611297e+02 1.674403e+02 -2.103698e+03 
2.611360e+02 1.674216e+02 -2.103688e+03 
2.611378e+02 1.674021e+02 -2.103681e+03 
2.611403e+02 1.673837e+02 -2.103671e+03 
2.611386e+02 1.673722e+02 -2.103681e+03 
2.611328e+02 1.673736e+02 -2.103669e+03 
2.611259e+02 1.673689e+02 -2.103679e+03 
2.611204e+02 1.673708e+02 -2.103677e+03 
2.611166e+02 1.673715e+02 -2.103675e+03 
2.611140e+02 1.673708e+02 -2.103676e+03 
2.611131e+02 1.673707e+02 -2.103677e+03 
2.611204e+02 1.673704e+02 -2.103672e+03 
2.611183e+02 1.673714e+02 -2.103684e+03 
2.611194e+02 1.673670e+02 -2.103661e+03 
2.611129e+02 1.673644e+02 -2.103650e+03 
2.610992e+02 1.673603e+02 -2.103627e+03 
2.610838e+02 1.673565e+02 -2.103624e+03 
2.610783e+02 1.673570e+02 -2.103620e+03 
2.610707e+02 1.673531e+02 -2.103608e+03 
2.610678e+02 1.673545e+02 -2.103610e+03 
2.610574e+02 1.673538e+02 -2.103619e+03 
2.610457e+02 1.673527e+02 -2.103611e+03 
2.610394e+02 1.673564e+02 -2.103613e+03 
2.610411e+02 1.673569e+02 -2.103604e+03 
2.610441e+02 1.673559e+02 -2.103604e+03 
2.610528e+02 1.673570e+02 -2.103621e+03 
2.610598e+02 1.673554e+02 -2.103608e+03 
2.610670e+02 1.673555e+02 -2.103620e+03 
2.610722e+02 1.673561e+02 -2.103619e+03 
2.610786e+02 1.673558e+02 -2.103615e+03 
2.610740e+02 1.673558e+02 -2.103602e+03 
2.610759e+02 1.673579e+02 -2.103612e+03 
2.610746e+02 1.673553e+02 -2.103610e+03 
2.610698e+02 1.673567e+02 -2.103620e+03 
2.610580e+02 1.673560e+02 -2.103614e+03 
2.610547e+02 1.673567e+02 -2.103614e+03 
2.610527e+02 1.673581e+02 -2.103620e+03 
2.610457e+02 1.673578e+02 -2.103614e+03 
2.610472e+02 1.673588e+02 -2.103623e+03 
2.610538e+02 1.673621e+02 -2.103633e+03 
2.610612e+02 1.673630e+02 -2.103625e+03 
2.610748e+02 1.673641e+02 -2.103619e+03 
2.610737e+02 1.673622e+02 -2.103614e+03 
2.610833e+02 1.673617e+02 -2.103620e+03 
2.610828e+02 1.673616e+02 -2.103618e+03 
2.610803e+02 1.673605e+02 -2.103610e+03 
2.610736e+02 1.673643e+02 -2.103611e+03 
2.610664e+02 1.673630e+02 -2.103615e+03 
2.610569e+02 1.673636e+02 -2.103614e+03 
2.610470e+02 1.673638e+02 -2.103621e+03 
2.610446e+02 1.673614e+02 -2.103614e+03 
2.610433e+02 1.673628e+02 -2.103622e+03 
2.610402e+02 1.673638e+02 -2.103623e+03 
2.610482e+02 1.673653e+02 -2.103622e+03 
2.610558e+02 1.673659e+02 -2.103621e+03 
2.610588e+02 1.673657e+02 -2.103613e+03 
2.610644e+02 1.673636e+02 -2.103606e+03 
2.610613e+02 1.673650e+02 -2.103608e+03 
2.610504e+02 1.673588e+02 -2.103594e+03 
2.610446e+02 1.673580e+02 -2.103578e+03 
2.610315e+02 1.673557e+02 -2.103578e+03 
2.610089e+02 1.673565e+02 -2.103571e+03 
2.609911e+02 1.673566e+02 -2.103567e+03 
2.609598e+02 1.673613e+02 -2.103532e+03 
2.609319e+02 1.673671e+02 -2.103527e+03 
